9.838675 1.788989 -5.821823
-8.740319 4.858685 -2.009265
-2.838546 -9.588673 -2.959332
-9.874884 -1.576919 -4.989322
-7.020585 -7.121193 -9.615648
-6.681107 7.440619 9.681190
-7.386409 6.740991 -7.966300
-9.821931 -1.878740 -8.492607
-3.107984 -9.504759 -7.495915
-8.878755 -4.600838 -2.278313
1.618432 9.868165 4.606314
-4.578847 8.890116 5.935616
9.763678 2.161153 -7.168605
-1.950894 -9.807855 1.510434
-6.468164 7.626457 -1.802052
9.818972 -1.894148 5.863430
-5.933204 -8.049664 -6.443099
-5.884044 -8.085668 -5.284966
-9.327559 -3.605085 0.976090
-0.763145 9.970838 3.626111
-0.760696 9.971025 8.847882
5.137165 -8.579600 -4.197369
8.246126 5.656978 6.871416
-5.789477 -8.153647 8.341563
8.494486 -5.276713 -4.495899
-6.531600 7.572200 -4.240872
7.454224 6.665924 9.737190
-9.770015 2.132324 6.686489
7.355191 6.775040 8.839114
-5.256567 8.506968 -2.887218
0.214608 -9.997697 -2.681923
-0.392103 -9.992310 -6.454647
2.926172 9.562297 -2.204340
-4.769422 -8.789347 -6.181220
-7.825160 -6.226305 -6.470462
-4.688921 8.832555 -2.256043
-6.596333 7.515876 1.896356
7.437890 6.684145 -9.220862
-8.941955 -4.476767 2.137215
8.982287 4.395284 -9.796937
8.054166 5.927092 0.778352
7.749800 -6.319857 4.970743
-3.186869 -9.478600 -8.329013
-2.526184 -9.675660 1.724395
9.940321 -1.090880 5.875429
-9.917545 -1.281522 4.807217
-7.724979 6.350173 -2.418071
-1.266885 9.919426 9.176579
-9.235587 -3.834571 -8.237564
-5.614548 -8.275074 3.212958
6.559542 7.548007 -9.016073
9.821568 -1.880641 4.751392
0.539219 9.985452 2.592484
4.544686 -8.907628 -4.248514
-7.879826 6.156976 6.893629
-8.836498 4.681486 4.039848
-8.626590 5.057860 -4.770708
9.504824 3.107784 9.889539
1.288356 -9.916660 -8.634943
6.037581 -7.971676 5.580675
-8.016109 -5.978461 8.677222
-9.045809 4.263020 9.415968
-5.537948 -8.326532 -4.652709
5.388415 8.424072 9.146728
-7.963421 6.048465 -3.347044
0.877542 9.961422 -6.164069
9.487689 3.159708 0.798852
7.592727 -6.507726 -6.030964
1.226129 -9.924546 0.933460
9.959839 -0.895321 -7.444721
6.713816 7.411119 -3.297360
-5.175843 8.556322 -6.587463
9.087724 4.172920 4.465203
-8.850809 4.654372 -9.516405
-8.165295 -5.773037 1.915993
4.729835 -8.810713 8.022241
2.840211 9.588180 6.714300
-2.568299 -9.664566 2.537975
-4.244586 9.054473 4.871754
8.956768 4.447056 -2.608121
3.908970 9.204344 -7.332602
-4.824298 -8.759346 -8.586776
8.342185 5.514340 9.154027
-8.780261 4.786127 -0.482940
-5.712738 -8.207595 -9.947339
8.363704 -5.481648 -4.407133
-9.578738 -2.871896 -8.615182
-2.075692 -9.782203 -9.203836
6.025840 7.980554 1.051560
9.548124 2.972093 -8.813041
9.591191 -2.830029 2.965677
9.562692 -2.924881 8.828555
9.988743 -0.474355 -1.800689
7.317494 -6.815737 -1.629350
4.782948 -8.781993 -6.861447
7.242654 6.895213 4.722155
7.997979 6.002694 9.473191
9.767119 2.145551 0.554583
1.839953 -9.829271 -6.713335
8.792849 -4.762963 9.801693
-4.274098 -9.040580 -3.668132
-6.185589 -7.857385 0.059023
9.726427 -2.323064 7.117028
-3.836474 9.234797 -2.561338
4.098908 -9.121346 -7.909000
0.173654 9.998492 -4.641723
8.531923 -5.215965 -9.339372
-5.374553 -8.432922 -6.034689
-9.724506 -2.331091 5.017640
0.833704 -9.965186 6.158310
-2.496764 9.683293 -3.580208
6.892650 -7.245093 5.681217
-8.692589 4.943572 -7.857360
9.796656 -2.006373 0.374292
0.796734 9.968210 -6.281183
8.760553 4.822106 2.810898
6.942283 7.197549 -2.215259
-9.591279 -2.829728 -9.763343
-1.033571 9.946443 0.389768
3.031451 -9.529444 9.213536
-9.731514 -2.301658 -0.831137
9.452338 -3.263940 -7.697679
-3.950152 9.186746 -1.603513
9.843840 1.760348 8.607592
-9.067262 -4.217197 1.523914
-4.291343 -9.032407 -9.745790
-2.547261 -9.670132 -0.497711
-3.127009 9.498516 4.992476
8.057574 5.922458 4.514529
8.956432 -4.447733 8.600405
-9.195293 -3.930214 -4.158363
-1.984900 9.801029 5.909465
-4.140383 9.102595 8.422846
-9.382326 3.460052 -0.857860
-7.810342 6.244882 -5.250903
7.736301 -6.336375 -7.058720
9.390282 3.438401 -7.835341
-5.859485 8.103483 3.207166
-1.133147 9.935591 3.824017
2.082146 9.780832 8.573648
-3.478011 -9.375683 -6.936474
-4.142833 -9.101480 3.205399
8.254869 5.644213 -6.618470
2.847520 -9.586012 -5.296425
-2.567498 -9.664779 5.972382
-6.366080 -7.711875 -8.464197
7.922266 -6.102270 -2.874672
-9.637026 2.669782 -3.996995
3.107193 9.505017 -5.343445
-1.527773 9.882606 -4.361120
9.553215 2.955686 2.423178
9.533869 -3.017507 -6.834176
2.078683 -9.781568 9.777256
3.621741 9.321105 7.602987
9.851326 1.717959 -0.970826
-6.360626 -7.716375 -7.116136
-7.533369 6.576348 -5.857507
3.766693 9.263478 -1.397634
-9.712283 2.381502 -4.064261
-9.960838 -0.884137 -7.400269
-3.368698 9.415513 6.836423
0.917626 9.957809 -1.397118
5.521910 8.337177 -1.743420
5.291878 -8.485047 4.251744
4.900236 -8.717092 9.403810
-6.180167 7.861650 3.425890
-5.119257 -8.590298 7.943712
-5.399595 -8.416910 9.336343
5.949485 8.037638 -6.343090
1.838893 -9.829470 -9.212821
5.405786 8.412935 5.282403
8.422952 5.390166 5.273453
-3.983197 -9.172467 -2.420520
-4.824226 -8.759386 2.459402
7.255012 -6.882209 -8.294989
-6.604137 7.509020 -7.237790
-8.593658 -5.113613 -3.895468
-5.973158 -8.020061 -3.759196
-4.839237 8.751102 9.454896
-8.266586 5.627038 -4.586024
-9.981087 -0.614741 -5.270309
-8.582196 -5.132827 2.617117
9.277802 3.731273 1.030828
1.422357 -9.898328 -8.649633
8.455952 -5.338247 -5.633892
6.106823 -7.918757 -3.774114
-5.269102 8.499210 -1.151834
-9.682241 2.500840 2.930207
-9.677007 2.521018 4.754300
-7.477471 -6.639836 -2.294363
4.354747 9.002010 0.876885
9.990509 0.435575 7.918941
9.526182 -3.041687 9.329335
-9.717917 2.358410 -9.970092
-6.453384 7.638968 6.565111
-9.956551 -0.931181 -2.723673
-9.828489 1.844125 -9.885727
-9.926074 -1.213691 7.710132
-9.628730 2.699547 6.668617
8.748351 -4.844208 -7.831002
2.390867 -9.709982 -9.933705
7.439636 6.682202 3.676947
6.083640 -7.936581 1.700206
-1.843189 9.828665 0.369151
7.618298 6.477773 -0.578544
7.857564 -6.185360 3.249559
-5.130094 8.583830 -5.613512
-9.989714 0.453444 -1.291109
-7.325287 6.807361 9.283266
8.331398 5.530624 -2.690808
-9.233830 -3.838800 2.371130
-0.880671 9.961145 0.372762
8.742801 -4.854217 -9.610759
5.772627 -8.165585 4.402621
-8.273265 -5.617214 9.440528
5.300398 8.479728 9.939820
9.972953 -0.734987 7.071967
-8.639107 -5.036450 5.023732
9.908977 -1.346167 0.179626
-9.286888 3.708601 -7.160011
5.326326 8.463465 -0.257107
7.940674 -6.078298 -4.067733
7.951596 -6.064002 8.215482
-7.157690 -6.983371 -3.605114
6.134598 7.897260 -3.172862
6.402526 -7.681644 6.052022
2.651513 -9.642068 -3.699968
6.013724 -7.989688 0.658464
-1.239589 9.922873 2.961119
-4.280691 -9.037460 3.658183
5.829798 -8.124866 8.845135
2.187859 9.757729 -5.170223
7.536481 -6.572782 -2.484596
-4.514531 8.922949 1.547873
-1.892163 9.819354 -6.352427
-3.556458 -9.346208 -5.296117
-4.058291 9.139490 -5.245936
-8.013570 -5.981864 -6.918779
-4.576747 8.891197 7.946090
-9.671399 -2.542449 7.634488
-1.041480 9.945618 -1.381870
-2.676233 -9.635236 -1.536076
5.666208 -8.239787 4.792026
8.517357 -5.239717 -2.658303
3.272673 9.449318 -3.178749
9.373772 -3.483159 -3.802609
8.131270 5.820863 -1.723300
-7.605838 6.492398 4.698970
-3.705831 -9.287993 -9.398669
5.378388 8.430477 -9.633346
-6.763627 -7.365687 -4.781975
-7.414865 -6.709678 -4.457578
6.556164 -7.550941 -5.980197
6.042078 7.968268 -6.736698
-6.284576 7.778438 0.865062
-8.029550 5.960397 -9.878420
9.979971 -0.632600 4.352401
8.744239 4.851627 0.872713
0.676458 9.977094 -2.331522
-9.981119 0.614216 -6.257518
2.318583 9.727496 8.106328
9.017753 4.322051 7.286950
1.958059 -9.806427 -3.512758
9.693622 -2.456358 9.024115
1.791631 9.838194 -9.398340
3.795627 -9.251660 4.709743
-9.649638 2.623830 1.440051
8.400946 5.424399 3.382175
-4.263477 -9.045593 -1.316981
9.119713 -4.102540 -3.691027
-4.056641 -9.140222 -9.624702
8.314572 5.555888 9.904452
8.407519 5.414206 -5.922691
7.161972 6.978980 1.378652
7.108057 -7.033884 5.403762
-9.696553 2.444760 3.607895
6.353972 -7.721854 1.878328
-7.709698 6.368717 5.909642
-0.182240 9.998339 7.828913
-1.707832 9.853086 -0.164005
-7.501861 -6.612268 -7.980232
-6.898713 7.239321 7.432767
5.198542 8.542550 2.111082
0.894191 -9.959941 4.709176
-9.875352 1.573983 4.750101
8.328036 -5.535686 -2.165740
-5.664084 8.241247 8.263661
-5.003429 8.658274 -5.120850
5.844045 8.114625 6.972336
-8.943038 -4.474603 -9.629439
8.357970 5.490385 -9.905779
-8.526946 -5.224098 -4.275363
8.681795 -4.962503 -6.396944
-5.257167 8.506597 -3.490416
-4.478901 -8.940886 6.392885
9.516263 3.072577 -3.859237
-0.862301 9.962752 -1.441162
-9.686321 -2.484993 8.411331
-2.630560 -9.647806 -8.309672
-2.394891 -9.708991 0.977050
7.428688 -6.694371 4.446997
7.556677 -6.549552 -7.164754
-8.376733 5.461716 3.014222
-7.833694 -6.215564 0.387088
7.481350 -6.635465 -3.142325
-3.345217 -9.423881 1.769291
-3.400508 -9.404071 4.068098
-1.259731 9.920337 0.436049
5.541513 8.324159 8.618534
4.017560 9.157467 4.880994
2.074595 -9.782436 3.171742
-9.993643 -0.356520 -0.354596
9.644394 2.643042 9.270468
1.585877 9.873449 1.384245
-2.521623 -9.676850 6.411415
8.993037 -4.373246 1.427588
9.913008 1.316160 9.284277
-1.454596 9.893642 -8.881251
-2.852330 9.584582 9.791366
-5.233213 8.521355 -7.426529
0.858069 -9.963118 3.525294
-2.061940 -9.785111 4.469864
-3.286302 -9.444587 6.015173
-4.883211 8.726640 7.409102
8.380044 5.456634 -4.087766
0.149089 -9.998889 -1.026642
0.667229 -9.977715 -8.840005
-4.797821 -8.773877 7.211833
9.684049 -2.493829 6.313374
9.759842 2.178414 6.134952
-2.633632 9.646968 -6.323450
-9.995839 -0.288445 5.289746
-0.422881 -9.991055 1.242620
0.984567 -9.951413 -1.427372
6.557330 7.549929 -8.842466
-9.179369 3.967265 -4.578545
5.064600 8.622635 -8.002478
2.181203 9.759219 8.635122
-7.523138 -6.588050 4.295931
0.150066 9.998874 9.175260
9.718992 -2.353976 -8.523987
0.792688 -9.968533 -9.603897
-1.129247 9.936035 -8.075601
-3.246219 -9.458439 0.664902
-9.400619 3.410039 -4.534252
-0.224761 -9.997474 7.970959
-2.856119 -9.583454 -4.566615
-5.710625 -8.209066 2.630392
-0.535648 9.985644 0.193667
8.931770 -4.497053 7.253137
1.950783 -9.807877 -1.259721
-8.557385 5.174086 7.595771
-9.718449 -2.356214 -4.025549
-7.836684 6.211794 2.778457
-8.192235 5.734744 -0.071909
9.649155 2.625607 -2.789690
7.802127 -6.255143 -1.836268
8.130554 5.821863 0.804249
-5.127982 -8.585092 7.494572
-5.396651 -8.418798 5.227703
-9.884255 -1.517068 -9.412707
3.110406 -9.503966 1.337708
7.899581 6.131608 -1.047953
7.827144 6.223810 8.729231
-3.928827 9.195886 9.814137
4.653183 8.851434 5.785305
-7.903663 -6.126346 4.475290
5.766582 -8.169855 -7.525296
9.454418 3.257909 9.182273
-9.924549 -1.226099 9.555696
3.057985 9.520963 0.008560
9.680195 2.508750 2.821575
-9.130753 -4.077909 -6.984104
-8.185263 5.744691 -7.002378
-2.518097 -9.677768 9.197065
-2.689670 9.631494 3.131884
7.291597 -6.843436 4.957049
9.936280 1.127091 -9.652753
-5.544376 8.322253 -8.390587
9.990865 -0.427337 -4.826866
9.872884 -1.589392 0.007982
-8.222703 -5.690972 8.404534
0.664756 -9.977881 1.845302
8.360783 -5.486102 -6.330987
-1.747642 9.846103 7.098743
-4.490567 -8.935033 -2.380616
-8.708666 -4.915195 2.202585
-9.838957 1.787433 8.423059
9.138171 -4.061260 -9.382357
-9.175727 -3.975681 -9.096242
7.356957 -6.773122 -2.105115
-9.581947 2.861171 2.208175
0.721911 -9.973908 2.420367
5.674733 -8.233918 5.446376
2.906521 -9.568288 2.716041
9.544076 2.985064 9.417207
5.881929 8.087207 3.164431
5.094274 8.605136 -6.710751
5.248839 8.511738 -1.301799
-7.216467 -6.922615 -8.149075
0.887853 9.960508 4.715574
-1.784659 9.839461 -6.982621
8.535428 -5.210227 -0.494192
-4.548092 -8.905889 -0.380113
-3.417260 9.397996 0.506856
9.488656 -3.156805 -6.393375
-9.613652 -2.752761 3.156226
0.073095 9.999733 -0.127648
9.386838 -3.447794 1.693574
-9.554132 2.952721 -6.595452
7.702215 -6.377765 -3.125454
-9.994828 0.321580 -9.444775
7.699827 -6.380647 1.394645
9.382787 3.458801 -6.151414
-9.718939 2.354195 6.284668
4.151735 -9.097423 8.508051
-9.183730 3.957158 -6.475820
-9.997928 -0.203553 0.252847
7.847769 -6.197783 8.460704
-6.550234 7.556086 -7.055609
6.880231 7.256888 -4.736613
-8.182746 -5.748275 5.764052
-8.381469 -5.454445 3.385276
2.597468 -9.656768 -6.835506
-9.021950 4.313283 7.642548
9.364143 3.508965 -4.639780
6.938873 7.200836 -7.054309
9.906258 1.366033 1.949404
-9.593600 2.821851 -4.156274
-2.871311 -9.578913 9.027548
-6.044015 7.966799 -8.507346
-1.882255 -9.821258 0.790736
-1.181409 -9.929968 -6.997977
-2.621545 9.650259 6.320806
0.734101 9.973018 9.000194
-9.894796 1.446723 -5.007717
9.273536 3.741862 4.017499
2.050084 9.787602 -8.492707
9.669571 2.549392 -7.937685
6.193223 7.851368 0.724961
9.615581 -2.746014 -4.723539
9.959861 -0.895082 6.225301
1.039159 9.945861 8.006103
-9.991098 0.421849 -8.170228
-8.614134 5.079045 3.413239
9.869498 -1.610282 2.839207
-9.205843 3.905440 3.526547
3.264639 9.452097 -6.900560
-9.980250 -0.628178 2.041583
6.548913 -7.557231 -3.637467
9.352920 3.538768 -9.569603
9.901267 -1.401753 0.258184
-5.535411 -8.328218 -6.819207
-7.703457 6.376264 0.148187
-9.622793 -2.720634 -6.287695
-5.450535 -8.384013 -1.022825
8.402551 5.421913 -1.271513
9.999873 -0.050299 7.233868
7.196976 -6.942877 -0.903610
-9.837388 1.796051 7.127246
8.391683 -5.438719 5.586690
4.157940 -9.094588 -7.767665
-4.515956 -8.922227 5.785796
-6.028685 7.978406 -3.450580
-9.029057 -4.298386 -7.613419
-2.202964 9.754330 3.360570
-6.727743 7.398478 8.937661
8.258128 -5.639443 -4.979642
-1.694756 -9.855344 -0.064358
9.122638 4.096033 -5.647516
0.709499 9.974799 -8.158508
-7.863728 -6.177522 -6.201630
-6.691625 -7.431161 6.594340
4.633171 8.861926 -3.420419
2.204084 9.754077 9.425271
-3.166913 -9.485287 -8.901316
-9.067551 4.216578 -5.283986
9.130319 4.078881 -1.533750
7.651274 6.438789 -5.555874
-9.685197 -2.489369 -0.926233
7.722041 -6.353745 -6.658978
-0.431731 -9.990676 1.254442
-7.624611 6.470341 7.699451
-9.633291 -2.683225 -1.647428
4.791017 8.777594 3.184343
1.526304 9.882833 -9.540554
3.696722 -9.291622 -1.068635
-3.657515 9.307125 -4.064628
6.683340 7.438614 -6.209032
-4.997948 8.661438 2.917744
-8.847951 4.659802 -2.252013
8.710020 4.912794 0.648124
1.571219 -9.875792 1.589587
8.845908 -4.663680 3.115225
-9.849552 1.728097 -5.390556
-3.486153 9.372659 3.291068
5.595271 -8.288121 5.525504
-2.278221 -9.737028 1.855073
7.510997 6.601888 -3.163616
-8.701202 -4.928396 3.999711
8.717048 4.900314 2.142345
5.145978 -8.574317 1.256953
-3.905544 -9.205799 9.063214
-9.995569 0.297674 -6.242559
7.158470 -6.982571 0.648057
-5.437175 -8.392683 -0.163083
7.432510 -6.690127 -4.487570
9.959201 -0.902396 -2.606804
-9.852102 1.713502 8.290451
0.465246 -9.989171 -0.100928
9.724178 -2.332458 9.423831
-8.439897 -5.363594 0.469208
-9.021432 4.314368 3.941042
7.739823 -6.332073 -2.530037
-8.586258 -5.126030 -8.321094
-6.969702 7.171001 2.802901
2.373929 9.714137 -2.697462
9.532606 3.021493 -4.363030
-9.337058 3.580412 0.016135
9.413788 -3.373515 4.443023
1.251313 9.921402 -4.651124
9.656316 2.599147 8.887624
-2.097830 -9.777480 -2.541587
-2.189045 -9.757463 -0.057934
-9.219869 3.872211 -1.489697
-0.784583 -9.969174 -1.415296
-8.068834 -5.907108 -5.243439
6.090001 7.931702 0.675426
-9.990662 0.432064 2.015742
9.667518 2.557166 -8.472529
9.925328 1.219779 -7.038755
-0.437072 -9.990444 -2.099358
-2.737793 -9.617925 -8.535419
8.565174 -5.161181 4.898837
-4.855966 -8.741830 -2.359750
-4.622808 -8.867336 -5.063796
9.969132 -0.785113 -4.304323
-1.349842 9.908477 4.333792
0.397180 -9.992109 -2.752251
-0.730833 -9.973258 2.763903
-6.385381 -7.695902 7.250005
-5.847755 8.111952 -7.327374
1.092925 -9.940096 -3.171148
-1.746287 -9.846344 -4.365177
-4.946732 -8.690791 8.402120
-7.123571 7.018172 -9.022068
6.022226 7.983282 -1.376313
-9.778453 -2.093289 6.561542
9.406965 3.392494 -5.362762
7.292749 6.842208 7.158936
8.597549 5.107069 -3.274963
4.976471 -8.673796 6.139842
5.724352 -8.199500 6.033232
-9.996242 -0.274131 -4.145136
-5.447682 8.385867 -0.463182
-8.066916 5.909727 8.338079
-8.632596 5.047601 -3.899931
2.943183 9.557075 9.879622
8.566729 -5.158600 7.771911
-9.998937 -0.145825 1.558928
-3.156553 -9.488739 -2.713527
5.993877 8.004589 -6.465958
1.245679 -9.922111 -6.486810
-2.842868 9.587393 -2.875502
0.194674 9.998105 -9.002430
-1.100228 -9.939291 -6.593528
-2.291990 -9.733796 -9.431296
-9.996076 -0.280102 9.503220
-6.339199 -7.733987 -6.639211
-3.590243 -9.333282 -9.366979
-8.582925 -5.131608 -2.624060
-8.143636 5.803551 3.406973
-1.225625 9.924608 0.359099
-5.711523 -8.208441 0.615434
-7.351611 6.778925 0.251271
5.583580 -8.296001 6.692505
-9.649982 -2.622566 7.827244
-4.774317 8.786688 4.605472
-0.494966 9.987743 5.134910
-9.491156 3.149280 -5.518740
6.975431 7.165428 7.079108
-9.657085 -2.596288 5.491006
-6.469172 7.625603 -7.881700
8.024023 5.967835 -4.027793
-9.160421 4.010822 2.117491
0.806904 9.967392 0.641785
4.035187 9.149714 3.422182
-1.863295 -9.824873 -1.286187
9.538888 -3.001602 1.224967
5.790945 -8.152604 6.662587
9.358094 -3.525065 6.378639
5.324262 -8.464764 -1.491600
9.650245 -2.621597 6.129568
-1.202765 9.927404 -0.849597
2.123728 -9.771887 -0.802777
-9.410125 -3.383719 3.234936
3.252426 -9.456306 -6.638498
7.878169 6.159095 -4.600332
9.808145 1.949434 -9.098494
7.732525 6.340982 4.438996
-4.437209 8.961650 -1.285623
-6.414878 7.671332 -4.360825
9.414886 3.370449 -4.720677
5.176197 -8.556108 -8.061172
9.014748 4.328316 -5.516431
-2.715324 -9.624293 8.831421
-9.210725 3.893911 0.188299
-7.027066 7.114798 -3.550387
5.787181 -8.155277 9.440492
-8.611913 5.082810 8.474320
9.868990 -1.613393 -8.110061
-2.975691 -9.547003 2.847428
-6.462773 7.631027 -9.695359
9.557667 2.941257 -4.177478
3.954999 -9.184660 0.345582
-7.958070 6.055503 -6.228028
8.436086 -5.369585 -5.573882
-7.374852 -6.753633 -8.876712
-3.650851 9.309742 3.382705
1.040029 -9.945770 7.944708
-4.545309 -8.907310 -5.545798
8.254073 5.645377 -7.050112
-0.755121 -9.971449 7.013627
9.998814 -0.154009 -8.514754
-2.196474 9.755793 -5.171441
-5.769789 8.167591 4.499608
8.306252 -5.568319 4.376711
6.507101 7.593263 8.219430
9.984471 0.557087 3.030375
2.098010 -9.777441 -7.482793
-7.297957 6.836653 -4.121021
-5.738379 8.189689 -4.421791
6.531151 7.572587 -7.628035
-1.336012 -9.910352 -2.390644
1.053626 -9.944339 -6.768004
-9.894982 1.445450 4.915908
-4.051320 9.142582 3.211039
-3.458840 9.382773 -4.987687
8.599486 5.103807 2.645086
-5.818877 -8.132691 8.938735
-4.779181 -8.784044 6.256101
0.291607 -9.995747 6.578997
-5.663718 8.241499 -0.024154
8.520725 -5.234237 1.694879
6.512549 7.588591 5.764793
-9.999150 -0.130415 7.230709
-3.687338 -9.295350 5.049942
-4.582238 -8.888369 -7.285398
6.646121 -7.471885 -3.873922
9.695373 -2.449438 3.186232
-7.608557 -6.489211 -1.993363
9.998156 0.192035 -0.383683
2.664585 -9.638464 -2.583515
-9.941097 -1.083782 0.398603
-9.818275 -1.897754 0.647818
-3.249335 9.457369 5.237325
5.567459 -8.306829 3.779044
8.441005 5.361850 1.099688
1.553747 9.878556 -2.976841
8.011240 5.984984 -6.108867
-9.217561 -3.877703 6.535902
-4.132064 9.106374 1.570365
-1.710189 9.852678 7.338733
1.914735 9.814978 3.398252
-9.845803 -1.749333 9.542148
-9.624780 2.713596 0.960969
-9.705603 2.408581 -4.639619
9.602145 2.792634 -9.635996
9.823243 1.871871 0.479763
9.967239 -0.808798 -6.361982
-8.582076 5.133027 0.357300
-4.291898 9.032143 -2.717444
3.528225 -9.356903 0.895184
-9.994289 -0.337923 -4.407826
-9.991559 -0.410788 5.534928
-9.205717 3.905736 -7.089791
-4.502471 8.929040 8.724678
-7.627176 -6.467317 3.018459
-1.562017 9.877252 2.123324
-1.939798 -9.810055 -9.356450
-8.766950 -4.810466 -1.997007
-6.776626 -7.353729 -8.185691
3.485279 -9.372984 -8.143742
8.934223 4.492177 -4.804997
9.839864 1.782438 -6.019807
-2.713625 -9.624772 5.747818
-2.813036 -9.596188 -7.315648
2.407382 9.705901 0.363300
6.218048 7.831723 0.259077
-5.989013 -8.008229 -6.581043
8.134810 -5.815915 -5.422489
-5.295921 -8.482525 9.096861
-4.062390 -9.137669 2.647137
-9.324943 -3.611848 8.550709
7.783426 6.278398 8.645794
-1.250669 -9.921483 3.099385
-0.622071 -9.980633 -9.179140
1.318916 9.912641 7.005316
-8.499438 5.268734 6.701613
-8.373800 5.466212 4.565920
0.306092 -9.995314 4.839437
-8.454597 -5.340392 8.247229
7.429130 6.693880 0.069406
9.870571 -1.603691 1.917033
5.978204 8.016300 -0.661993
8.581868 5.133375 -5.691795
-9.551694 -2.960599 9.593014
-9.923983 -1.230678 2.653529
-0.664202 -9.977917 6.799383
4.953069 -8.687181 -2.707965
2.500807 9.682250 7.978020
4.741098 8.804657 9.623666
9.887581 1.495241 -2.825441
-1.291805 9.916211 9.880771
3.673096 -9.300987 -5.467438
5.157658 -8.567296 -7.593604
9.213251 -3.887930 -9.508957
6.597719 7.514659 7.025896
9.751913 2.213640 7.127672
-7.295060 -6.839745 -7.646629
-8.184447 -5.745853 0.171934
-9.611190 -2.761343 5.237181
8.376482 5.462101 -8.910345
-4.875256 -8.731087 1.415216
-8.175840 5.758093 6.195193
9.999917 0.040696 6.789023
5.713498 -8.207066 6.937802
-8.833966 -4.686261 0.572720
3.805946 9.247420 8.636036
3.304070 -9.438385 -7.027358
9.709075 2.394550 7.551107
-1.262608 9.919971 -4.925141
-8.831566 4.690783 -8.653425
8.055331 5.925508 -6.939876
-8.539380 5.203748 -9.332039
3.725784 -9.280007 9.625917
-2.799221 -9.600227 -5.119778
-4.211014 -9.070136 -6.534649
-8.598145 -5.106065 -6.735675
8.295128 -5.584877 8.676855
-2.631562 -9.647532 -8.512183
-6.728905 -7.397421 -5.668212
-7.703123 -6.376669 -4.797411
6.351678 -7.723742 3.722753
7.480343 6.636601 2.248231
4.821788 8.760728 1.690207
-1.087436 -9.940698 3.044044
-7.324938 6.807737 4.126249
3.229501 9.464160 -5.640663
-9.991033 0.423386 8.458049
-2.836616 -9.589245 -5.491515
-7.721114 6.354872 1.358328
8.266766 5.626773 4.381573
-4.032911 -9.150717 1.108279
-6.962103 7.178379 -7.985902
-8.269448 5.622831 -1.476231
-1.978414 -9.802340 7.555308
9.141317 -4.054174 2.395832
9.628472 -2.700466 0.278474
9.628540 -2.700226 -7.472319
6.718857 7.406549 4.098089
-7.473220 6.644620 -5.015892
6.215494 7.833749 6.188368
-6.071165 -7.946129 -6.180212
9.108959 4.126362 1.806701
-9.957771 0.918037 -0.741469
-6.304047 7.762667 -9.407268
7.232613 6.905745 9.893656
9.760456 -2.175661 -8.004892
-3.974553 9.176215 3.011393
-0.876849 9.961483 4.825742
9.996600 -0.260735 9.546713
9.999533 -0.096661 1.630273
-1.262377 9.920000 -2.063262
-2.844681 -9.586855 2.329985
3.104967 9.505744 9.933161
1.130233 -9.935923 3.708111
-6.671063 7.449625 2.777868
-6.149411 -7.885730 1.006310
-1.007121 -9.949156 9.697305
6.434884 -7.654558 5.675363
-9.364573 -3.507815 -0.384848
-3.687298 9.295366 -2.386260
8.940058 4.480553 9.957247
-2.841315 -9.587853 1.233201
-8.574891 5.145021 -4.773916
-9.973269 -0.730682 2.466086
-9.161630 -4.008060 6.653104
-4.765583 -8.791429 1.793087
6.862802 7.273373 -9.845919
9.997748 0.212217 -3.183797
9.435139 3.313331 9.023847
9.509650 3.092987 9.871817
0.841813 -9.964505 -0.384186
-9.997677 -0.215524 -5.311934
8.256781 5.641415 -5.761493
5.884660 -8.085220 -3.495820
2.742489 9.616588 -8.703816
3.043694 -9.525541 -7.508145
-9.986098 -0.527109 0.803264
-5.275705 8.495113 7.846476
-9.911884 1.324593 -1.380971
-7.141539 6.999887 5.748864
-7.587463 -6.513863 -4.086178
-6.566775 7.541715 2.393658
-9.989101 0.466757 4.196368
8.790720 -4.766891 1.882472
-4.971226 -8.676803 4.110616
-6.730825 -7.395674 2.812579
0.813564 -9.966851 -3.036101
-7.871487 -6.167632 1.756817
2.654129 -9.641349 6.084873
3.830720 9.237185 -5.960443
7.974458 6.033906 5.299793
9.286874 -3.708635 6.437974
-4.693882 8.829919 -3.520939
9.982850 0.585411 -5.662610
1.605417 9.870291 2.350825
-9.924748 1.224487 -9.883035
9.236959 3.831266 3.772770
8.900949 -4.557752 -4.875822
2.295526 9.732963 -3.266062
5.811814 8.137741 5.585530
5.922745 -8.057363 3.379989
5.337225 8.456597 3.916211
9.968982 -0.787014 -2.142555
-9.534997 -3.013938 3.638017
4.354337 9.002208 5.441792
-6.755278 -7.373345 -6.748368
-9.952722 0.971253 6.262900
9.746940 2.235433 -9.332831
-7.614941 -6.481718 8.086284
-3.012301 -9.535515 8.984827
-9.687072 -2.482063 -0.444224
5.572320 -8.303569 8.800551
8.477212 5.304421 -7.147598
7.823928 6.227852 2.722266
-7.030406 -7.111497 5.348352
-6.020101 -7.984885 9.550647
1.649765 9.862975 3.916650
-5.693555 -8.220915 2.632662
-9.587178 2.843592 -8.097164
-4.337416 -9.010373 6.499739
-0.654342 -9.978569 7.511237
-9.442326 -3.292791 7.287997
9.326950 -3.606661 -8.803598
-8.595655 -5.110256 -6.372609
-8.495530 5.275032 -6.658296
-7.656086 6.433067 1.341557
-8.406497 5.415792 -4.187152
6.913400 7.225296 -6.197231
-8.834320 4.685594 -2.550045
-6.168697 7.870653 -1.221321
9.997757 -0.211801 -2.560348
0.394228 9.992226 -9.285020
-9.933674 1.149839 2.345262
9.089986 -4.167991 8.963167
5.639177 8.258310 3.997064
-6.550375 7.555964 -2.219745
4.253536 9.050272 9.788444
8.962248 4.436002 -5.318943
9.646471 2.635449 -1.802092
-5.696864 -8.218621 -4.326346
-9.584037 2.854160 8.617659
-9.834686 -1.810789 -8.422102
-9.219438 3.873237 -8.706917
-7.930067 6.092129 -1.467107
-0.424195 -9.990999 5.103081
-7.019895 -7.121873 -0.468740
-8.946976 -4.466724 8.694072
9.903163 -1.388292 5.541197
8.544474 -5.195379 1.464645
-8.420788 -5.393545 7.710532
9.998107 0.194582 7.901816
-4.032898 -9.150723 -1.373225
0.623700 9.980531 -5.740591
1.574278 9.875305 2.794634
8.046190 5.937914 -7.122160
-9.853503 -1.705424 -2.222146
-1.191219 -9.928796 -0.410797
-9.356649 -3.528897 -1.137104
-3.029009 -9.530220 5.964526
-7.624286 6.470723 -0.309732
9.999477 0.102320 8.290883
-2.750226 -9.614378 9.468618
0.243849 9.997026 3.632989
8.510960 -5.250100 -6.225381
-8.539995 5.202739 -2.480209
-6.446521 7.644761 -4.596531
7.010511 -7.131111 8.331210
4.623759 -8.866840 3.806162
-4.926955 8.702018 -7.456314
-3.601260 -9.329037 -4.399251
9.428654 3.331740 -1.577279
9.303338 3.667138 1.677782
1.776318 9.840970 0.464149
4.688282 -8.832894 -0.178766
-3.267940 -9.450956 2.101225
9.299249 3.677495 -7.829308
9.923543 -1.234215 6.544461
5.787743 8.154878 6.415250
9.868075 -1.618982 2.332059
-1.060783 -9.943578 6.094499
-6.795266 7.336508 3.793955
6.807176 7.325459 -6.309599
-0.087312 -9.999619 9.417834
6.815299 7.317903 8.672785
8.298106 -5.580451 5.307555
4.730113 8.810564 -6.387822
-9.917424 -1.282460 -6.490754
9.293428 3.692179 -8.178763
2.993035 -9.541580 8.332316
-9.760056 -2.177456 5.384891
4.781353 8.782862 -9.808274
6.442094 7.648492 5.787277
-6.161777 -7.876072 1.043131
8.503330 5.262450 4.560686
-9.038314 -4.278887 -8.868009
3.600861 9.329191 -9.731406
-3.561662 9.344226 8.236092
-4.568770 -8.895299 1.134627
-9.687608 2.479969 -0.370862
4.853425 8.743241 -9.468075
4.318211 -9.019593 4.183824
-4.629889 -8.863641 -6.683935
-1.803185 9.836083 4.570333
-1.678883 -9.858060 -9.898787
-8.529463 5.219987 2.479878
-1.172101 9.931071 9.959909
-0.154448 -9.998807 4.806579
8.287345 5.596420 -6.201250
-9.883751 1.520353 -8.129875
-6.664291 7.455684 -3.873005
-7.996714 6.004379 2.550164
-9.050592 4.252857 -5.992315
-3.491062 -9.370832 -3.005130
5.802140 8.144641 9.172826
7.068334 -7.073801 -5.449079
0.361797 -9.993453 -9.534668
-9.966758 0.814697 3.487632
-8.362344 5.483722 -6.079782
3.040798 9.526466 -0.837457
5.526167 8.334355 1.933160
-7.186949 -6.953255 0.604655
-9.652808 -2.612144 9.987580
6.275913 7.785430 2.456067
-0.534018 9.985731 -8.211591
-9.345560 -3.558160 0.243981
9.660104 2.585030 -9.702023
8.036305 5.951286 -5.011278
-7.475532 -6.642019 -4.325428
5.122766 8.588205 -0.725790
-0.219387 9.997593 2.510318
-3.111992 -9.503447 -6.475472
-4.732418 8.809326 -7.475573
9.824600 -1.864736 -3.555512
6.996217 7.145135 -1.520490
-8.685913 4.955292 -9.742123
-9.435410 -3.312558 4.068365
-2.109560 9.774956 4.117003
9.501667 3.117424 3.321435
-2.424411 9.701661 -8.772063
8.683399 4.959696 7.298030
-6.218972 -7.830989 4.478773
-0.303189 9.995403 7.597964
-6.899707 7.238373 4.836832
-6.260946 7.797471 -2.411410
-3.747505 9.271257 3.995722
-1.525014 9.883033 -9.841105
-7.418296 -6.705884 -6.590880
-9.715959 2.366461 2.349313
4.004027 -9.163393 0.330882
6.908673 -7.229816 -1.498472
9.425561 3.340479 -5.088873
-9.870828 -1.602111 9.677533
9.943097 -1.065284 -7.076064
8.842227 4.670656 5.945901
0.704967 -9.975120 6.579234
-8.260506 5.635959 5.235372
-9.839230 1.785935 -0.716084
-8.958679 -4.443205 7.936052
-1.541477 -9.880478 5.495753
9.635050 -2.676902 -7.988606
-2.386850 9.710970 -5.035597
9.091158 4.165435 -4.001593
5.641915 8.256440 -3.669139
-6.057506 -7.956546 -9.133270
-9.991391 0.414845 8.717487
-7.586829 -6.514601 -3.883905
-2.892819 9.572439 6.802209
-9.396641 -3.420985 -4.986501
-1.669740 -9.859613 -5.074831
-9.780037 2.085874 -0.594447
-5.577468 8.300111 4.360485
9.401461 -3.407716 5.471627
6.176573 -7.864474 4.141054
9.988370 -0.482152 8.412782
9.062642 4.227116 0.498050
-9.999953 0.030690 -0.526222
-8.294919 -5.585187 -3.407672
-6.452033 7.640109 6.055462
-9.712539 -2.380459 -4.900996
-8.641393 5.032527 -3.428693
-0.560141 9.984300 4.122229
8.749659 -4.841846 3.479500
-8.928303 4.503931 -3.052937
-8.543161 -5.197539 3.376728
-4.284344 -9.035729 -2.308532
4.622263 8.867620 -2.964345
-9.666990 -2.559159 -8.676456
0.602015 -9.981862 0.204411
8.824015 -4.704972 -5.705521
-4.202865 -9.073915 -3.192280
2.741106 -9.616982 -7.063364
9.806331 -1.958539 6.247061
-9.135579 4.067087 -5.493275
-2.743514 9.616295 -8.914624
9.435053 3.313573 0.130469
9.844303 1.757753 -4.039717
7.711562 6.366460 -5.928855
-9.958491 -0.910194 -9.455934
4.900906 -8.716715 -0.956026
0.175002 9.998469 5.895025
-9.796786 2.005738 3.635014
-4.109142 -9.116740 -0.557465
1.576964 -9.874877 2.757649
8.974527 4.411107 -6.961327
-2.091460 -9.778844 2.086706
9.836917 -1.798627 -5.534039
1.542805 9.880271 9.195934
-4.360422 8.999262 6.675158
-5.418685 -8.404633 -8.623401
-9.133640 -4.071440 9.555796
4.556231 -8.901728 0.717800
2.127056 9.771163 -1.611076
9.983254 0.578480 -7.609710
-0.789230 -9.968807 7.910606
3.902758 -9.206980 4.325352
9.911889 -1.324562 5.003350
-6.137047 7.895356 -1.585962
-8.099597 -5.864855 -3.556204
6.557641 7.549659 -0.203613
9.186228 3.951356 9.398021
3.439363 9.389930 -5.789611
8.892606 -4.574009 8.424025
6.885642 7.251754 -0.042368
4.911460 8.710773 -8.126928
-9.906862 1.361649 5.277195
8.466434 -5.321606 0.463985
-5.351799 8.447381 -7.057633
2.178923 9.759728 6.717269
9.758231 -2.185618 -3.949762
9.128272 -4.083461 1.958599
2.306877 -9.730278 -1.643455
2.187031 -9.757915 8.698312
4.539127 8.910462 -7.519013
1.117721 9.937339 -3.660219
7.376129 -6.752238 -1.739424
-9.107625 -4.129306 -1.346822
-6.078390 -7.940603 -4.727967
-2.041674 -9.789360 -8.336689
-1.539374 9.880806 -1.271769
9.952770 -0.970760 -8.426031
-7.694049 -6.387613 3.516228
-5.299444 8.480324 3.634780
6.904497 -7.233804 6.679396
3.177846 9.481629 -6.368983
1.562887 -9.877114 5.946359
7.644980 -6.446261 -0.310351
5.002107 8.659037 5.606665
9.057469 4.238190 -3.576464
-3.845300 9.231125 2.013833
8.208579 -5.711324 4.812088
6.608668 7.505032 -7.908355
7.035016 7.106937 -4.836031
5.635758 8.260643 -3.351970
-9.264738 3.763592 0.200669
6.044671 -7.966301 -5.242166
-0.377529 -9.992871 -6.471835
3.453034 -9.384911 -3.143079
-8.014533 5.980574 -0.120963
-7.593598 -6.506710 0.069044
-2.593629 -9.657799 6.898202
9.955601 -0.941277 -7.042408
3.518702 9.360488 8.308831
-9.986678 0.515998 -0.496095
3.099499 -9.507529 5.603570
5.499016 -8.352294 -0.604558
-8.280627 -5.606354 5.422577
6.048408 7.963464 6.577833
8.575618 -5.143810 -2.139474
8.836355 -4.681755 0.690266
-7.013863 -7.127814 -3.134935
-9.925379 1.219366 9.655303
-9.272484 3.744469 -4.489374
-9.747684 2.232186 2.732463
1.968750 -9.804286 -1.192255
-9.373289 -3.484459 -6.268108
-8.223511 -5.689803 4.767624
7.370829 -6.758023 -2.294620
-9.994871 0.320241 -5.948025
8.958261 4.444048 -0.216195
9.870790 1.602345 -5.655433
4.249135 -9.052340 -1.165795
9.980599 -0.622608 8.817755
5.874154 -8.092856 0.250069
-7.058847 7.083268 3.246960
-9.922384 -1.243505 8.347095
-6.429319 7.659233 0.383042
-6.081422 -7.938281 7.589402
1.833874 -9.830407 -2.766137
0.390718 -9.992364 -1.863489
-9.789287 -2.042024 -0.283936
6.542415 7.562857 -2.689870
1.470188 -9.891337 9.211740
7.014562 -7.127125 6.101777
-2.954107 9.553704 -7.000659
-9.908177 -1.352043 -3.414107
-9.522238 3.054011 2.700890
6.990190 -7.151031 2.918396
6.209999 7.838106 9.077312
1.552593 9.878738 2.131593
4.310774 9.023150 3.531247
8.982675 4.394490 4.005768
-6.454509 -7.638018 7.161625
-9.753763 2.205472 -2.077562
1.454620 9.893638 7.142382
6.119202 -7.909195 0.582366
6.225712 -7.825632 -7.752717
0.801898 9.967796 -5.601097
7.255873 6.881301 8.075745
2.035338 9.790679 -1.783687
9.661147 2.581130 -1.909181
9.209307 3.897265 -0.662729
-3.015190 -9.534602 -3.830412
-5.173167 -8.557941 -0.503160
-9.860553 1.664179 1.598687
-9.362587 -3.513113 9.025697
9.815232 -1.913429 5.570513
5.114350 8.593219 4.201528
8.855611 4.645230 9.513331
-7.633699 6.459616 -4.014671
-7.307718 6.826218 8.886591
-6.361394 -7.715742 -8.007645
2.058283 9.785881 -8.005382
-9.890268 1.477359 8.489043
0.322305 -9.994805 4.308815
-6.241279 -7.813222 4.695361
2.432429 -9.699654 8.752720
-9.899571 -1.413679 9.584774
-1.354484 -9.907844 8.761013
5.649598 -8.251184 5.332848
-9.982959 0.583544 -4.912895
-8.704037 4.923387 4.964331
-9.997310 0.231930 1.153992
-2.222377 -9.749925 2.601595
1.250258 9.921535 -7.469283
5.860538 8.102721 -7.397504
8.559053 5.171327 0.727774
6.133324 -7.898249 -8.304643
0.250609 -9.996859 -8.872638
-8.729638 4.877850 -4.658085
-9.242968 -3.816744 5.234866
8.259100 5.638020 -3.544592
-0.566965 -9.983915 -5.541115
-0.642032 -9.979368 0.900288
5.877503 -8.090424 -3.095025
9.946346 -1.034509 0.428659
2.023065 -9.793222 4.880951
-1.318500 9.912697 -6.993264
-6.552572 7.554059 1.233740
0.322427 -9.994801 7.285463
2.054441 -9.786689 5.139409
4.959289 8.683631 -8.162474
2.274645 9.737864 -9.224548
0.939997 -9.955722 -6.269273
-7.770388 -6.294526 -2.511872
2.004223 -9.797096 6.237574
-9.873541 1.585306 -6.969161
8.780027 -4.786556 -4.428851
-8.698966 4.932342 -3.915220
8.249168 -5.652542 4.549900
-7.114819 -7.027044 9.128923
6.401345 -7.682628 -5.623891
-6.621982 7.493287 6.646335
4.488916 8.935862 9.879285
-8.920315 4.519731 -2.995492
-7.432169 6.690505 6.581990
-1.697082 9.854943 -4.897341
9.132265 4.074523 4.253570
-6.685840 -7.436366 -5.398580
9.597584 -2.808268 -8.205702
0.317185 -9.994968 8.023766
3.133496 9.496378 6.625196
-3.564180 9.343266 6.785612
8.533974 -5.212608 -6.703402
2.205330 9.753795 -1.233144
9.988507 0.479300 -1.409833
9.624567 2.714353 -8.740597
7.073909 -7.068226 7.693468
-4.378164 -8.990644 4.515447
8.415049 5.402496 -9.724143
-7.697096 6.383941 8.613677
9.651363 -2.617478 -9.121903
-9.390990 -3.436467 4.796822
-9.179556 -3.966831 -7.254348
-8.853614 -4.649033 9.405306
-6.160578 7.877010 1.569570
5.268299 -8.499707 -4.523452
7.854937 -6.188697 -3.263160
4.571484 -8.893904 1.032000
8.906427 4.547038 5.445658
-6.181938 7.860257 0.108006
-8.743307 4.853307 -0.708484
-6.624607 -7.490966 -3.941015
-8.955200 4.450213 8.786853
4.114343 -9.114394 3.209056
-8.211843 5.706630 7.568014
7.300852 -6.833561 9.180753
-2.105587 9.775812 1.013816
9.597605 2.808199 -5.200503
-3.686952 -9.295504 7.776003
-7.823857 -6.227942 -3.487402
8.731613 4.874313 -6.168017
5.781196 8.159521 -7.108249
8.382096 -5.453483 2.177766
-7.016321 7.125394 -0.170598
-9.723062 -2.337105 -7.512865
9.993129 -0.370634 0.075604
-6.246270 -7.809232 5.292475
-9.288903 -3.703549 7.501351
-4.344811 9.006809 -3.792755
3.410706 -9.400377 4.317907
-9.574685 -2.885378 9.567402
9.203733 3.910410 5.701704
-7.976589 6.031089 -7.424638
-5.185654 -8.550380 -1.395815
-6.212549 7.836085 1.268019
-9.696251 -2.445959 -4.937199
1.088702 -9.940560 -0.785481
-9.993785 -0.352508 -5.882521
8.278784 -5.609077 -8.470474
-2.235405 -9.746946 1.942480
5.667507 8.238893 -7.293811
9.999042 0.138438 9.118747
0.350266 -9.993864 5.308336
7.055537 7.086564 -2.035165
-3.235606 9.462074 -8.348205
-9.853808 -1.703665 6.879788
-6.192035 7.852306 -4.679255
-0.939880 -9.955733 -7.343215
1.387731 9.903242 6.726410
9.849942 1.725877 3.370151
1.195319 -9.928304 2.737725
1.103113 -9.938971 0.580299
-8.636549 5.040835 1.006441
-6.834815 7.299679 -5.983644
-0.925423 -9.957088 8.232072
2.723798 -9.621898 -5.362539
9.981756 0.603773 -1.871053
-3.590984 -9.332997 -6.091313
4.064293 9.136823 0.689536
1.417743 -9.898990 0.536027
7.352490 -6.777971 1.892093
-5.375395 -8.432386 3.846318
9.570591 -2.898930 -2.481850
-7.813269 6.241220 9.053907
9.996756 0.254709 -5.822203
2.025120 -9.792798 -9.631052
6.330771 -7.740888 1.822442
4.482379 -8.939143 0.734319
-6.831279 -7.302987 0.267394
-3.378982 9.411827 -0.971366
5.575991 8.301104 -4.382789
-0.303482 -9.995394 9.350867
9.400807 3.409520 -2.494727
9.702478 -2.421139 -5.641542
-9.992740 0.380971 7.433021
2.515467 9.678452 6.504974
5.855019 8.106710 6.717508
-8.928193 4.504150 6.952303
-9.970775 -0.763963 -1.059930
-8.546298 5.192379 -7.321099
4.243968 -9.054763 -4.105347
0.681642 -9.976741 -2.882320
-8.951013 4.458627 -5.622707
-9.999664 0.081951 -6.140016
-9.820066 -1.888467 8.626805
2.046040 9.788448 -6.341620
-8.391700 5.438692 -5.566659
5.827293 -8.126663 -2.324382
-0.473392 9.988789 6.029648
-8.054810 -5.926217 -9.529291
-8.379374 5.457664 -8.770604
4.277425 9.039006 -8.445235
-6.326775 -7.744154 -1.028289
1.332895 9.910772 4.055403
7.530233 -6.579939 3.742663
5.948023 -8.038720 -9.977614
-4.781642 8.782705 -3.804808
5.784955 8.156856 0.257857
-9.999819 0.060217 -3.294618
-3.015058 9.534643 6.814761
9.923934 1.231072 -0.041908
-8.169253 -5.767435 2.188290
-9.088105 -4.172092 2.605080
-9.738127 -2.273518 -2.322270
-7.795849 6.262966 -9.453893
8.154393 -5.788426 -4.231379
9.831987 1.825384 -1.322718
2.121852 -9.772295 8.449649
0.348532 -9.993924 2.056585
-9.865762 -1.633015 -3.802952
-4.490310 8.935162 8.735488
-9.916829 -1.287051 -1.554711
-3.853360 9.227763 4.866296
6.912394 -7.226258 -0.681856
1.566975 -9.876466 -0.048851
-9.912213 -1.322131 -4.363487
3.130415 -9.497395 4.350947
7.017894 -7.123844 -5.868421
-2.783808 9.604708 -1.260585
0.625556 -9.980415 6.237965
8.329394 -5.533643 -0.512686
9.753981 2.204509 -2.175899
7.898772 6.132650 2.462772
-9.925262 1.220316 0.043863
-1.727789 9.849606 -1.197374
9.744854 2.244510 -6.020166
-9.126412 -4.087617 -5.642084
8.985678 -4.388346 -3.464915
-7.524564 6.586421 -2.170340
9.732854 2.295988 -4.973165
-6.847235 -7.288029 -2.204479
-0.470327 -9.988933 -5.941010
-3.677040 -9.299429 -9.171550
-0.572068 9.983624 -1.877205
-9.322408 3.618386 3.198182
-9.157392 4.017732 -1.511172
-4.255081 9.049546 -2.380946
4.961936 8.682119 6.429973
-8.110709 5.849478 4.438678
9.956135 0.935613 -0.837299
-9.389300 3.441082 9.888933
9.695943 -2.447181 -0.771033
-6.814802 7.318365 0.656709
0.005109 9.999999 0.398345
3.911917 -9.203092 -0.096132
8.671856 4.979850 -5.331456
4.527502 -8.916374 -6.849630
7.943591 -6.074485 -3.719858
-6.415836 -7.670531 3.107698
-4.303148 9.026789 -1.529743
9.273056 3.743052 4.840068
9.535813 3.011358 2.121592
-2.328314 9.725171 6.490413
-6.783415 -7.347468 6.237863
-9.508077 3.097816 -4.955411
2.536444 -9.672975 4.403795
4.359683 -8.999620 -7.771578
8.047673 -5.935904 -9.611430
0.502353 -9.987374 -5.715738
4.103263 -9.119388 -2.912254
-8.515830 5.242198 8.973561
0.829523 -9.965535 -5.573169
8.834987 -4.684337 -5.303732
-1.251624 -9.921363 4.640264
-9.759811 2.178554 5.406219
7.304220 6.829961 1.528260
0.731101 9.973239 4.635048
8.470286 5.315473 -3.374718
6.651087 -7.467466 9.037985
-6.964095 7.176446 9.986414
9.997401 -0.227987 -7.553883
-6.274154 7.786847 2.903494
-8.386536 5.446652 -1.462636
7.127890 7.013785 -8.411964
9.552433 -2.958213 1.910613
-0.108526 -9.999411 -2.493616
-0.328397 9.994606 8.793896
9.998207 0.189383 -5.782513
9.363679 3.510202 1.381860
9.812865 -1.925533 -0.152133
-3.041139 -9.526357 5.044247
9.845241 1.752493 -0.764551
2.667418 9.637680 -8.689445
8.787205 -4.773366 -8.060626
9.890792 1.473848 -1.773246
9.546875 2.976102 -6.307405
5.921725 -8.058112 4.382035
9.990925 0.425942 -8.305605
-4.647795 8.854264 -3.012630
1.282104 9.917470 -7.303085
9.736574 -2.280159 -3.385972
-9.745966 -2.239676 -1.263377
-2.152094 9.765679 -0.303953
-4.338360 -9.009919 8.735999
-9.443669 3.288938 -9.718952
2.960524 9.551717 4.636816
-0.057333 -9.999836 -4.866077
-1.135549 9.935317 -0.340416
5.608699 8.279040 5.545726
9.036226 -4.283296 -5.659229
1.294774 9.915824 -9.910427
1.236227 -9.923293 -6.705525
0.395094 -9.992192 8.061821
9.973764 -0.723898 9.610238
4.516480 8.921962 -5.614548
-1.757733 9.844307 -0.060692
-8.708479 -4.915527 2.633615
9.283160 -3.717920 -5.666731
-2.526214 -9.675652 6.977411
-9.964634 0.840283 -4.391650
-3.431308 9.392876 0.805506
9.898621 1.420321 -1.446014
-7.767850 6.297658 -8.639112
9.327974 -3.604011 -3.199925
-9.995874 0.287226 5.305005
-9.745964 2.239686 -1.652560
9.543189 2.987898 7.515324
-1.406277 -9.900626 -5.342172
-3.951022 -9.186372 0.941580
3.087539 9.511420 -8.994489
-4.068930 9.134758 7.398231
-7.601326 -6.497679 -3.164166
8.084177 -5.886092 4.551094
9.052347 -4.249119 4.874035
5.684812 -8.226962 -4.943792
5.835551 -8.120736 -4.476070
9.939152 1.101483 -8.587954
-9.709414 -2.393174 4.740310
1.532348 9.881898 -9.770859
8.892200 -4.574798 3.761400
-0.979815 -9.951882 6.075956
1.063091 -9.943331 -1.093769
-5.857527 -8.104899 -5.460613
-9.623946 2.716552 8.645477
9.534866 3.014355 -0.925936
9.939878 1.094910 2.238227
-9.977807 -0.665865 9.426733
9.780855 -2.082037 -7.773821
0.928771 -9.956776 1.552489
1.050926 -9.944624 8.729218
6.281073 7.781267 -4.770753
2.529436 9.674810 -5.890558
-2.573535 -9.663173 -4.947363
9.084025 4.180968 7.103870
3.782179 9.257166 8.543305
1.048793 9.944850 -0.173488
0.420512 9.991155 -1.919206
9.517032 3.070196 -5.885308
8.671019 4.981308 7.849727
-8.777416 4.791342 4.023157
-7.973975 -6.034544 3.579435
6.026231 -7.980259 9.758907
5.941242 8.043733 -4.549553
8.670392 -4.982399 -2.245834
2.802042 9.599404 9.342499
8.119291 5.837561 -9.129866
1.486371 -9.888918 6.048178
7.554592 -6.551956 -4.850136
1.197725 -9.928014 4.130616
9.563213 -2.923175 7.009384
-8.490889 -5.282499 6.827993
0.689236 9.976219 -8.362200
-0.454215 9.989679 5.449720
4.083124 9.128422 3.376307
9.852694 1.710091 0.902584
-8.917662 4.524964 9.165748
-1.281421 -9.917558 -1.946195
-5.428768 8.398123 7.811850
2.427250 -9.700951 -9.932485
-9.317338 3.631421 -1.512511
8.363017 -5.482695 5.798695
-7.660373 6.427961 -4.624688
9.984839 -0.550447 -5.885164
8.400937 5.424414 -2.138822
1.448590 -9.894523 -2.549010
5.608756 8.279001 -8.024360
-4.560966 8.899303 9.270899
2.462226 -9.692133 -8.440637
4.906315 -8.713672 -3.330620
8.992132 4.375108 5.159779
6.345480 -7.728835 5.843383
8.576172 -5.142886 -2.995675
-4.625348 -8.866011 8.090812
7.847830 6.197707 -9.842310
-5.386660 -8.425194 -3.188652
3.292719 9.442352 4.784132
-4.813621 8.765218 3.896894
-6.059262 -7.955209 8.452892
-7.311004 -6.822699 8.793725
9.597389 -2.808935 -9.664662
9.968790 0.789448 0.838933
-9.465411 -3.225833 -5.017147
-8.762166 -4.819174 9.604856
2.962353 -9.551150 1.514961
4.410456 8.974847 -7.446897
7.617301 6.478944 -3.961026
-5.300619 -8.479589 -4.638582
-9.437528 -3.306519 -6.274667
8.313418 -5.557615 7.430260
9.987946 0.490854 2.765589
8.508486 5.254109 3.597746
-8.131766 -5.820170 -3.372613
3.343682 -9.424425 7.485335
-9.962231 -0.868309 7.030906
-9.935991 1.129635 7.338471
9.377458 -3.473224 8.082988
-5.706064 -8.212237 -0.834953
9.942214 -1.073491 4.137575
6.667883 -7.452472 -4.858781
-9.961307 0.878846 1.748975
6.699675 -7.423905 8.245342
9.755413 2.198164 -9.998038
8.327496 5.536498 3.534728
9.938419 -1.108070 8.742133
-9.976380 -0.686912 1.372359
-9.793602 -2.021229 9.992618
-1.568060 9.876294 0.706584
-8.024438 5.967277 -2.875757
-2.393661 9.709294 9.705731
5.461272 -8.377023 2.002060
-8.773897 -4.797784 5.267377
9.992029 0.399204 5.367212
-2.640935 9.644971 -1.342455
-4.867159 -8.735603 -5.895418
9.758037 2.186483 -6.065234
2.445494 -9.696368 4.440238
-5.259492 8.505160 -4.132840
-5.470437 8.371041 7.540934
-1.779640 -9.840370 2.036442
-2.977621 -9.546401 3.240541
-9.972578 0.740054 -8.669854
8.538570 -5.205077 1.109408
-7.625973 6.468736 1.820755
4.932421 -8.698921 4.072510
9.953010 -0.968293 -9.464537
-7.968176 6.042199 9.645240
-6.309680 7.758088 3.207648
8.936721 -4.487205 -0.747568
4.704463 8.824286 4.547263
0.202810 9.997943 -7.960488
-8.707549 -4.917173 7.922328
-8.644197 5.027708 6.928303
-9.997139 -0.239192 -4.915778
9.928292 -1.195419 -8.413091
9.801125 1.984425 1.345128
-6.683531 -7.438441 0.991131
-2.041963 9.789300 9.172892
-6.399813 7.683905 -3.735960
7.450172 6.670453 3.666030
9.125542 -4.089559 1.109330
0.848934 9.963900 6.274976
5.378322 -8.430519 -3.551136
3.673122 9.300977 0.243302
-7.037677 7.104301 0.419291
9.869678 -1.609177 2.006626
8.635801 -5.042116 9.932157
-6.281283 -7.781098 5.874080
1.804240 -9.835889 9.885315
3.614469 -9.323927 8.439289
-2.795916 9.601190 -7.642447
-9.664693 -2.567822 -0.297045
2.221586 9.750105 -3.749740
9.975112 -0.705078 -4.312795
9.615819 -2.745183 -7.856134
1.164807 9.931930 2.053587
8.822951 4.706967 -7.846670
-7.407804 -6.717472 -6.671442
9.023165 -4.310742 -3.366867
7.294001 6.840873 4.318093
7.608043 6.489814 -4.125361
9.999433 -0.106503 2.042941
6.882019 -7.255192 0.031036
-6.177771 7.863532 0.633812
4.783551 8.781665 -1.242604
9.972684 0.738630 -0.034459
9.622359 2.722170 -8.896639
-7.139472 -7.001996 -2.202615
8.495116 -5.275699 1.219854
-1.107286 -9.938507 -6.941550
-9.418771 3.359576 -9.220571
-0.219115 -9.997599 -9.147418
-1.256538 -9.920741 2.200779
-7.312573 6.821017 -9.731546
-9.586364 -2.846336 -8.839171
7.175245 -6.965333 3.579325
8.541214 5.200737 1.949878
6.090527 -7.931298 -6.152885
-9.183736 -3.957145 4.316744
-4.931003 -8.699725 7.967312
9.556818 2.944015 -2.356757
3.732368 -9.277361 -5.211327
-3.535717 9.354074 6.766391
-8.775524 -4.794808 0.457138
-3.456685 -9.383567 7.870505
-9.204773 -3.907960 -5.908362
8.889822 4.579418 4.303726
-5.611247 -8.277313 -9.947056
-6.547075 7.558823 -6.639999
5.648343 8.252044 9.210963
-6.932623 -7.206854 -8.466533
-6.305159 -7.761763 -6.663864
-4.520379 -8.919987 2.862512
9.387714 3.445408 -8.072177
-9.743329 -2.251121 -5.273161
5.822091 8.130391 -0.732901
-0.478672 -9.988537 -7.761066
9.999695 0.078098 -9.071611
-9.472746 3.204229 3.997421
3.164216 -9.486186 -6.185542
-8.693008 -4.942834 -6.021447
6.386263 -7.695171 -1.564806
-2.649487 -9.642625 9.900322
8.728643 4.879630 -3.949970
2.979165 -9.545919 -8.167294
1.565530 9.876696 -7.564721
9.108497 4.127381 -5.083185
8.200224 -5.723314 -6.500230
-8.496895 -5.272834 -1.525872
-2.590645 9.658600 -2.318322
2.596889 9.656923 1.160309
-9.998771 0.156764 -3.414146
9.985110 -0.545500 -2.463006
-9.977910 -0.664319 8.609545
-1.588251 -9.873067 -0.518420
0.510180 -9.986977 7.629350
9.812254 -1.928646 -7.268109
-9.835726 1.805129 1.278483
-9.636447 -2.671870 6.117999
-0.395240 9.992186 -2.278033
2.106198 9.775681 -4.599629
3.266108 9.451589 -8.323959
-7.961462 6.051043 8.848289
7.189185 6.950944 1.820376
-6.002338 7.998246 9.280371
9.439538 -3.300776 -5.613160
-7.436694 6.685475 -7.568495
2.807096 -9.597927 -2.825590
9.660703 2.582793 4.855765
-8.712912 -4.907664 -6.121561
-5.668041 -8.238526 -8.731383
-5.394075 -8.420449 -2.971028
-5.724010 -8.199738 2.043886
-7.150901 6.990323 -4.644132
-8.315615 5.554327 0.885594
6.048626 7.963298 8.546954
-9.822782 1.874289 -9.487482
4.917319 8.707466 -0.563125
9.579696 -2.868698 -8.728706
2.848478 9.585728 -7.812893
5.950146 8.037149 4.346184
-8.725149 -4.885874 -3.013151
-9.166035 -3.997975 3.236989
-9.422828 -3.348180 6.780234
4.730667 8.810266 -2.830847
2.969192 -9.549026 3.367607
0.927194 9.956923 -4.219514
7.167375 -6.973431 7.375372
5.916602 8.061874 -0.732241
-9.930867 1.173833 1.677240
-4.035973 9.149367 -8.711100
9.038242 4.279040 2.346090
-7.191391 -6.948661 1.038861
-9.270181 3.750166 0.410583
8.804118 -4.742099 -0.463391
7.417653 6.706596 3.245449
9.900919 1.404212 -1.604458
-3.578805 9.337674 4.339472
9.469846 -3.212790 5.770265
-9.420547 -3.354593 -6.337426
-0.523521 -9.986287 -8.035406
-9.715173 2.369688 7.799589
7.266119 -6.870481 4.785151
-0.078368 -9.999693 -5.687731
-1.124961 9.936522 -0.592083
-9.657500 2.594744 0.351358
-9.971864 -0.749619 -6.454792
-4.552474 8.903650 -9.424236
5.122340 -8.588460 -6.607613
-2.217147 -9.751116 1.624863
8.826891 -4.699574 0.945710
