9.920189 1.260893 -3.093068
-8.891965 4.575254 0.257256
2.666531 -9.637926 -2.312535
-1.243300 9.922409 2.177152
-7.270393 -6.865959 -2.608850
-5.002318 -8.658915 -0.166625
9.140649 4.055680 3.863934
9.995855 0.287884 -1.511871
-3.625193 9.319763 0.667703
7.389757 6.737321 1.244451
-6.139588 -7.893381 -3.562854
5.588435 8.292731 1.887063
9.923452 1.234950 -1.238910
-4.431710 8.964371 0.044221
-7.818761 -6.234338 3.518374
2.637565 9.645893 -1.514385
-3.687462 9.295301 1.433288
-8.802792 -4.744561 0.842685
-4.498071 -8.931257 1.194271
2.903009 9.569354 -1.625544
4.783330 -8.781785 -2.555579
1.440994 9.895632 3.235472
-9.995746 0.291643 -1.275430
6.345189 -7.729074 -4.184961
-9.968281 -0.795853 1.629640
0.199264 -9.998014 3.349268
-2.512188 9.679303 -3.008660
-9.629991 2.695047 -1.267635
-9.856852 1.685961 0.470740
9.903412 -1.386518 -4.317750
9.898507 1.421109 2.174978
-9.602662 2.790857 1.962304
9.515089 3.076213 -2.335478
8.244904 5.658760 -1.213113
-6.808584 -7.324151 -4.911000
-9.285085 -3.713112 4.317956
9.991241 -0.418455 -4.700569
8.896855 4.565739 -4.945562
-2.185595 -9.758236 1.382277
-9.947230 1.025968 2.149506
-0.813048 -9.966893 3.614141
9.883024 1.525070 -0.955526
-1.058751 -9.943794 0.376849
8.536865 -5.207872 -3.766050
3.172259 -9.483500 -0.057527
-9.796936 -2.005007 -2.262946
-9.436166 3.310403 -1.762859
1.988620 9.800275 1.735104
6.598463 -7.514006 1.059357
2.712823 9.624998 -2.409215
-2.282906 9.735930 3.839820
5.547764 -8.319995 4.601840
-8.837927 -4.678788 -2.078340
-4.074051 9.132475 3.935680
-4.233305 9.059753 3.813404
-3.561213 9.344397 0.572995
9.240189 3.823468 -3.849608
-8.073712 -5.900438 3.059938
0.354852 9.993702 0.927221
-8.641049 5.033118 -4.047366
-6.621647 -7.493584 3.616502
1.724950 9.850104 -2.469740
-8.898473 4.562586 1.349034
-8.645442 5.025567 -2.815857
-8.006496 -5.991329 1.633113
-7.259494 -6.877481 4.281881
-9.753309 -2.207477 -2.885382
-9.440585 3.297779 2.148764
0.727271 9.973519 3.668997
1.913518 9.815215 -3.469576
8.634144 -5.044953 1.556312
-5.664862 8.240712 -3.471142
7.544649 6.563404 2.199549
0.867617 -9.962291 3.958746
9.118446 4.105355 1.564426
-8.537173 5.207367 -4.592442
-7.863393 -6.177949 3.216549
-7.945942 6.071409 -2.056750
-9.424463 -3.343575 1.563736
-3.017047 9.534014 2.191384
-0.943595 -9.955382 4.301040
-1.108540 -9.938367 1.686421
-8.639531 5.035723 0.072603
-9.835809 1.804680 -3.721258
4.360294 -8.999324 2.820930
8.166708 5.771038 1.468356
-6.131048 -7.900016 2.890961
-9.930138 -1.179984 -3.639673
-8.441776 5.360636 4.411174
9.790020 2.038505 4.951826
-9.703954 -2.415219 -0.084413
7.145888 6.995447 4.858926
-8.714245 -4.905297 0.378268
-9.935689 1.132289 -0.785820
-9.872142 1.593990 -1.360982
-9.966747 0.814836 -3.168882
-5.972916 8.020242 4.490354
8.370584 -5.471135 -1.845773
-9.998034 -0.198268 2.669294
4.290215 9.032943 -4.777129
-4.974394 8.674987 -4.901301
-3.519284 -9.360269 -4.985190
0.012347 9.999992 1.110582
-0.474155 9.988753 -0.767536
8.776927 4.792239 -4.052374
-7.444858 -6.676383 2.737656
6.957794 -7.182555 -3.664498
9.196994 3.926232 4.585828
-7.313289 -6.820250 -1.572532
-1.462453 -9.892484 -3.053033
-8.479295 -5.301091 -2.058534
9.188556 -3.945940 4.574001
8.824994 -4.703136 3.267570
-9.921222 -1.252742 2.417201
-9.268295 -3.754823 -3.168892
-4.274500 9.040390 -0.827314
7.182099 -6.958265 -4.569709
3.331541 -9.428724 3.391031
8.378743 -5.458632 -4.553769
-3.539229 -9.352746 -3.012313
-1.399294 -9.901615 -2.785367
4.960176 -8.683125 2.361646
-7.638373 -6.454088 3.287645
8.467134 5.320493 3.076428
9.756718 -2.192361 -4.323835
-9.261733 -3.770982 -4.257374
5.090891 8.607138 -3.970401
-3.094678 -9.509099 -4.367543
-1.886890 -9.820369 -4.451823
-9.887694 1.494490 1.357265
2.502874 -9.681716 -0.229026
5.255283 8.507761 -4.146415
9.306750 3.658470 1.916533
9.096352 4.154080 0.344510
-6.649586 -7.468802 -1.069044
-8.590941 5.118176 2.127402
8.521287 5.233322 3.734512
2.022949 -9.793247 -2.189243
7.638069 6.454448 4.296542
1.459703 -9.892890 2.000654
8.765923 -4.812338 1.525044
-7.245510 -6.892212 -3.828007
9.255710 -3.785740 -0.700329
9.356257 3.529936 -0.106132
9.425278 3.341278 -0.030983
1.444547 -9.895114 -0.022412
2.298904 9.732165 -1.944124
-4.869093 8.734525 3.873910
9.935406 1.134776 -3.393276
7.395488 -6.731029 3.499835
9.730979 -2.303921 -3.373740
9.982020 -0.599393 -3.240205
-8.025495 -5.965855 4.897779
-8.406305 5.416091 2.476045
-9.976866 0.679818 1.110676
-2.966883 -9.549744 -1.561028
-2.043290 -9.789023 -2.336829
9.930225 -1.179248 -4.858464
-8.538967 -5.204425 4.390750
-3.280672 9.446544 -4.959658
5.846419 -8.112914 0.727103
9.719274 2.352811 1.643108
-7.404960 -6.720607 -3.005136
-3.096337 -9.508559 -1.550660
8.625949 5.058952 -0.959205
-6.396981 -7.686262 3.511896
1.166941 -9.931679 0.194133
-9.991459 0.413217 -0.936029
9.988119 0.487317 4.751616
3.890419 -9.212201 -0.842129
3.416644 -9.398220 -4.276017
-2.994781 9.541032 4.788892
0.427531 -9.990857 1.079961
-2.036062 -9.790529 -2.301964
-8.358500 -5.489579 -4.728957
9.515509 3.074912 -1.788171
-5.354679 8.445556 -4.635660
-3.984557 9.171876 2.426422
5.449180 -8.384894 1.018106
8.995153 4.368893 -0.085649
9.618305 2.736461 -4.701163
-4.173866 -9.087290 -2.248952
-7.030817 7.111091 -0.846682
-3.868921 9.221250 -4.318879
0.044998 9.999899 1.502546
8.034638 -5.953537 0.916673
-9.815813 1.910450 -4.094410
-5.402285 -8.415184 4.677822
-1.080282 9.941478 3.249875
-9.987842 -0.492966 -4.681745
-1.099103 -9.939415 4.043758
9.920365 -1.259503 -2.400680
6.927826 7.211465 4.300822
9.629994 -2.695034 -4.207857
-5.849636 -8.110595 -3.785098
9.922075 -1.245967 0.955663
7.086695 -7.055406 -1.741647
3.343173 9.424606 -2.456978
-7.951977 -6.063502 4.135150
-1.281065 -9.917604 -2.479851
4.621772 -8.867876 0.908945
-3.149753 9.490999 1.542750
-5.420639 -8.403373 -4.083217
8.896266 4.566886 2.360740
-8.790952 -4.766463 0.561364
9.985311 -0.541808 3.542446
6.976094 -7.164783 -4.712842
-0.522362 9.986348 3.589849
9.101096 4.143677 -1.127323
-2.674070 -9.635837 4.732747
-3.302608 -9.438897 -2.781760
-3.981830 9.173060 -0.838037
-6.579613 -7.530517 -0.474667
-7.219742 6.919199 0.547417
1.406758 9.900557 3.875209
-9.306527 -3.659038 -1.729240
3.057152 9.521230 0.321018
-8.330530 5.531932 3.534416
-9.912822 -1.317559 -0.421670
4.397803 -8.981054 -3.272598
-6.750749 -7.377492 0.723303
-9.900748 -1.405418 1.235935
8.664860 4.992014 -4.095462
-4.901408 -8.716433 -2.698621
-9.733335 -2.293945 3.047445
9.635817 -2.674139 -1.357000
-7.310201 6.823560 0.371577
-4.206694 9.072140 -3.703363
9.550942 2.963024 4.865175
-9.524155 -3.048028 -4.649094
-5.551197 8.317705 4.271293
-7.892468 -6.140762 3.116904
3.491291 9.370746 -3.346860
-7.241122 6.896822 2.986155
-6.758378 -7.370504 -4.107731
-9.810786 -1.936099 4.135767
9.711484 2.384761 -3.732638
8.468552 -5.318235 -2.411416
3.306244 9.437624 0.335691
5.263628 8.502601 -2.094020
-8.812342 -4.726799 -3.122611
9.450435 -3.269447 -2.921599
7.555838 -6.550519 0.701178
-3.615973 -9.323344 -3.961525
4.388685 -8.985513 2.755145
2.990331 -9.542428 0.229372
-8.896970 4.565515 -3.770818
-8.806737 -4.737233 1.507946
-8.627185 -5.056845 4.391101
-3.369356 9.415277 4.973661
8.939660 4.481347 2.900688
-8.992129 4.375114 -1.468959
-7.183365 6.956958 -4.024942
9.208349 3.899527 4.639839
-9.999386 0.110806 1.255969
-7.297926 6.836686 -4.391195
8.684178 -4.958331 -0.623662
5.973584 8.019744 -2.029735
-9.991623 0.409239 -2.705782
9.102571 4.140435 2.164618
-3.460909 9.382010 -3.476481
4.615016 8.871394 -2.510711
-9.023457 -4.310129 -3.816443
-4.305469 -9.025682 -1.020132
8.091171 -5.876475 1.990491
9.998173 -0.191136 4.344308
-1.772046 9.841740 3.813312
-6.722384 -7.403347 -2.479610
-7.724838 6.350344 -1.717330
-8.634149 -5.044945 3.539570
-9.689687 2.471836 0.622344
-5.210398 8.535324 -0.705932
-1.758921 9.844095 -0.342899
4.378409 -8.990524 -0.737034
9.901508 -1.400048 2.735528
9.066820 -4.218149 -2.974882
-3.429387 -9.393578 -0.862672
-9.476759 -3.192341 -3.792735
9.973387 0.729072 -1.766493
2.527759 -9.675249 1.910229
-5.868241 8.097144 0.355878
-9.974680 -0.711173 1.133375
-5.229673 -8.523528 0.066676
-4.930506 -8.700006 1.255401
5.073714 8.617275 3.576131
-8.499464 5.268692 -3.815255
-1.162544 -9.932195 -2.093122
-8.232095 -5.677377 -4.760495
-1.695728 -9.855177 -2.899785
5.909945 8.066756 -1.129614
-2.179364 -9.759630 1.150413
9.824411 1.865732 2.092374
-5.500011 -8.351639 -2.793646
4.373610 -8.992860 -1.917098
-5.918786 -8.060271 1.009649
-1.673199 9.859027 0.241109
-9.838194 -1.791628 2.854139
-1.378797 9.904490 2.908935
7.235663 -6.902549 -0.147330
-9.212070 3.890729 -4.314228
-2.816855 -9.595068 -3.861892
-4.910692 -8.711205 -2.369868
4.471287 8.944696 3.662102
8.905325 4.549196 -3.191624
-1.039391 9.945837 -3.097234
9.890833 1.473571 2.100585
-7.712154 -6.365743 0.968330
9.384495 -3.454166 3.662075
5.252988 -8.509178 -1.323956
3.879865 -9.216651 -4.287359
6.555591 -7.551439 2.525093
-9.113658 -4.115972 -1.575795
9.047565 4.259293 3.707605
8.109969 5.850504 1.220235
-9.891684 1.467853 2.988236
-3.213348 9.469656 0.408946
4.678954 -8.837838 1.362245
8.843955 -4.667382 1.044564
1.845186 9.828290 2.283684
5.313715 -8.471389 -1.839414
-8.604475 -5.095391 -3.123721
9.417477 -3.363201 -1.209754
-1.767791 -9.842505 -1.260619
9.903255 1.387641 0.311247
-4.582318 -8.888327 -3.272193
9.753904 -2.204849 -3.250263
-9.981839 -0.602403 -3.183475
9.555130 2.949491 1.192009
8.130950 5.821310 4.451076
-7.531974 6.577946 3.832624
-7.743348 6.327761 0.843238
-9.894284 -1.450224 2.053262
-5.431217 -8.396540 -1.185481
-0.078039 -9.999695 -4.222889
9.882925 -1.525708 1.338549
-9.899872 1.411570 -4.894437
9.991937 0.401498 1.095106
-9.804911 1.965635 3.870503
-9.825309 1.860997 2.264416
9.973253 0.730909 -2.147046
6.526468 7.576623 2.792866
4.536414 -8.911843 -4.480109
-9.327756 3.604577 -1.201527
-9.200024 -3.919128 1.062406
-6.050537 -7.961847 -3.972032
1.533434 -9.881730 -2.242534
-9.893094 1.458320 -0.426908
-2.032772 -9.791212 0.202815
6.390427 7.691713 -2.691303
4.409376 8.975378 -4.240405
-4.312765 9.022198 0.301457
9.078642 4.192643 3.999646
2.654406 9.641272 -4.980491
-9.041598 -4.271943 -4.781326
-6.972067 7.168701 -2.512109
6.703100 -7.420812 -4.249959
6.157687 -7.879270 4.408266
-8.142544 -5.805082 2.919440
9.306670 3.658673 1.856397
8.697753 -4.934480 -4.074984
4.678152 8.838263 -3.116389
-2.666862 -9.637834 2.502096
4.215119 9.068229 -0.675429
-5.986880 8.009823 -2.427664
9.091364 -4.164985 -0.155736
-4.043133 9.146206 -3.263557
-4.940042 8.694595 -2.547693
2.577574 -9.662097 0.528655
1.195800 9.928246 3.605927
5.011709 -8.653483 0.341554
8.611203 -5.084013 -4.846316
9.945108 1.046343 2.706828
2.642166 -9.644634 -0.263792
-7.265706 6.870918 1.438726
-9.591411 2.829280 1.881569
7.586140 6.515404 -1.144726
3.069037 -9.517406 -1.476943
-9.907656 -1.355857 -0.315955
-7.173491 -6.967139 2.269761
9.131600 -4.076012 -2.426675
-8.199134 -5.724876 -2.164270
0.794123 -9.968419 1.023602
9.971087 0.759881 -4.771969
-0.140146 -9.999018 1.529312
-5.935853 -8.047710 -2.637776
7.929261 6.093178 -2.334569
9.786794 2.053939 -2.039692
-1.811685 9.834521 0.638812
-3.807121 -9.246936 -4.002045
-7.744408 6.326464 -2.835332
-9.042105 -4.270870 -0.173132
2.600614 -9.655921 4.397428
8.540440 5.202007 -1.659348
-6.689089 7.433444 -1.037853
3.089958 -9.510634 4.907524
-2.903596 -9.569176 -4.893696
-9.777295 -2.098689 0.231585
9.998428 0.177318 1.785431
3.935075 -9.193214 0.200101
-0.159234 9.998732 0.517477
7.822147 -6.230089 1.928180
9.964996 -0.835972 -4.117161
-9.645882 2.637605 0.116796
1.165706 -9.931824 -0.378015
7.037509 -7.104468 -1.937961
9.976339 0.687502 1.706376
-7.899893 -6.131206 2.298644
-4.444984 8.957796 -0.869093
6.341079 7.732446 4.530539
-3.300322 9.439697 -4.825814
-9.855519 -1.693739 0.440656
-9.758595 -2.183994 -2.713805
4.126335 -9.108971 -4.081070
7.275737 6.860296 -1.176532
-9.952280 0.975766 2.696466
6.060775 -7.954056 -1.566946
-3.576843 9.338426 4.675859
-8.927661 -4.505204 2.969851
5.072524 8.617975 1.341102
8.217595 5.698344 2.185915
6.492517 -7.605736 -1.332075
4.864034 -8.737344 -2.293450
-0.905095 -9.958956 4.890501
-8.338612 5.519742 4.500688
-9.505898 -3.104498 -0.460946
9.927516 1.201844 1.347541
8.585406 -5.127456 -0.474136
9.967374 0.807132 2.143967
4.267292 9.043795 0.030590
2.185225 -9.758319 0.950901
8.867845 4.621831 -2.238289
-8.485456 -5.291223 0.071008
9.940590 1.088429 -3.495316
6.003954 -7.997033 0.384547
-2.267340 9.739567 4.527083
-7.659651 6.428821 -1.683181
3.455372 -9.384051 -4.918275
9.891114 1.471686 4.100234
4.851203 -8.744474 1.317647
-5.369451 8.436172 2.488541
9.996673 -0.257934 -3.146940
9.960929 0.883116 -1.492444
-7.315196 6.818204 -1.441794
0.229839 -9.997358 2.584975
6.934204 -7.205332 -4.284987
-3.576132 9.338698 -1.532826
5.534102 -8.329088 3.168667
5.616674 8.273631 -0.340834
9.064855 -4.222370 -4.326543
-4.213496 9.068983 -4.374261
-9.376435 -3.475984 -3.182259
8.682193 -4.961807 3.624865
-9.828722 -1.842883 -0.530970
-9.575882 -2.881404 2.293914
9.980202 -0.628947 -3.324054
9.422607 3.348803 -0.910708
-7.412075 6.712760 -4.704488
-9.101886 4.141940 1.032212
8.094517 5.871865 2.801532
-0.209815 -9.997799 -3.533613
4.841903 8.749627 -0.186847
8.564907 -5.161625 -0.910760
9.327848 3.604337 -0.337209
-8.324657 -5.540766 -3.035873
-2.446378 -9.696145 -3.127271
1.796078 -9.837383 -2.208708
-4.540060 8.909986 3.885509
9.870738 1.602664 -1.209773
-2.928027 -9.561729 -0.058000
-0.002034 -10.000000 4.095820
-9.714108 2.374048 -4.132408
-7.946147 -6.071141 -3.498396
-9.543606 2.986567 -1.580255
3.086690 9.511695 -1.627949
0.801353 -9.967840 -1.813198
4.767012 -8.790654 0.329744
2.361282 9.717219 -0.628110
-8.723692 -4.888477 -4.026606
0.700608 9.975427 1.984394
-8.183772 5.746814 -0.743981
-4.086896 9.126734 -2.593888
7.479247 6.637836 4.601853
5.598756 8.285767 -3.077008
-5.491767 8.357063 -0.645847
-2.640001 9.645226 -2.267360
-1.257913 -9.920567 2.061835
-1.522672 9.883394 -1.125969
-5.253518 -8.508851 4.076086
9.801261 -1.983752 0.749386
3.056670 9.521385 3.357963
7.915084 6.111583 -0.392651
9.998935 0.145929 4.257625
-7.162627 6.978307 3.413074
-9.926724 1.208364 -2.693375
9.974894 0.708163 -2.376803
-4.111255 -9.115788 0.850476
-0.175798 -9.998455 0.656788
6.297511 -7.767969 2.909218
3.065189 -9.518646 1.791093
8.855061 -4.646278 4.305016
-8.575930 5.143289 0.012289
-1.968329 9.804371 2.820308
-9.896094 -1.437818 4.971713
-9.990015 -0.446760 -2.575064
-0.086759 -9.999624 -3.196755
-9.790708 2.035199 4.758150
2.504140 -9.681389 -1.440990
6.720211 7.405320 0.488187
-6.021400 -7.983905 2.279018
-9.049873 4.254385 -0.929647
2.321041 9.726910 -0.661517
9.769458 2.134876 0.424579
7.372309 6.756409 -2.280568
7.336684 6.795076 0.316035
-3.395419 9.405909 -4.231914
-9.962959 0.859915 1.589646
9.737876 -2.274592 1.591852
-9.950036 -0.998388 0.830672
2.609401 9.653550 -4.515197
2.698418 -9.629047 0.074321
-9.937050 1.120288 4.884452
4.988569 -8.666844 -4.030995
-2.045285 9.788606 -4.861559
1.663415 -9.860682 1.216815
5.600353 -8.284688 1.813543
-7.595480 6.504513 -3.102361
-4.713233 8.819605 3.089900
9.333718 3.589111 -3.387215
-2.911467 -9.566784 -3.687343
-8.398693 5.427887 2.345085
1.144544 -9.934285 -2.016082
-3.321844 -9.432145 -4.451967
-7.980390 6.026058 -2.485266
-0.132924 -9.999117 4.899716
2.825768 9.592447 1.067167
-2.756064 9.612706 0.749582
3.901854 9.207363 2.361087
-8.438737 5.365419 1.125393
0.976473 -9.952211 -1.602096
5.951510 8.036139 2.558994
-7.162571 -6.978365 -3.005626
-4.701785 8.825713 -2.542902
-0.873164 9.961806 2.655278
4.613038 -8.872422 3.898883
8.416284 5.400571 -1.551595
3.345245 -9.423870 1.540752
5.259945 8.504880 -0.359926
-9.329002 3.601351 3.550715
-0.676669 -9.977080 2.064245
-4.951686 -8.687969 -1.671635
-8.270399 -5.621432 1.727986
9.924755 1.224434 2.042618
6.069382 7.947490 -4.463906
8.450706 5.346548 -2.343729
-8.983471 -4.392863 -1.102711
9.393578 -3.429387 -3.487077
-9.700583 -2.428721 3.191731
-9.795196 2.013490 0.971619
-9.714230 -2.373551 3.849646
6.264819 7.794360 2.647914
4.722020 8.814904 2.141320
9.718762 2.354922 3.883933
5.551764 -8.317326 -0.838347
-5.705288 8.212776 -2.522111
9.186555 3.950596 -2.172356
9.428402 3.332452 1.663076
6.914968 -7.223795 2.329226
8.778639 -4.789103 0.506475
-1.557457 9.877972 -4.237381
1.062076 9.943440 4.079535
2.658359 -9.640183 3.657782
-3.795287 9.251800 -2.990899
-2.325339 -9.725883 2.405164
9.533516 3.018620 -1.701591
3.462621 9.381378 3.612862
4.414853 8.972685 -3.997813
4.788817 8.778795 -2.770326
7.817855 -6.235475 1.321711
-4.297506 -9.029476 2.727526
-6.007376 -7.994463 -2.828200
3.859529 9.225185 3.537739
-0.539838 -9.985418 0.222060
-1.837177 9.829790 4.204180
3.553208 9.347444 -3.193049
0.751510 -9.971722 0.562124
7.488614 -6.627267 -0.759769
8.272833 5.617849 -1.694386
-4.533328 8.913413 -0.905821
8.637251 -5.039633 -4.763196
9.644403 -2.643009 3.002597
-9.826581 -1.854266 -4.209829
5.983537 -8.012321 1.178782
-9.905665 1.370332 4.215553
9.266924 3.758206 4.676646
-0.083865 9.999648 1.173172
-7.741812 -6.329640 3.020399
9.809671 1.941742 4.914049
-6.770355 -7.359503 0.527091
9.983177 -0.579802 3.230413
9.761895 2.169193 3.824519
9.871968 1.595071 3.789569
-9.595480 2.815450 -1.861396
8.981324 4.397252 3.458174
-1.540615 -9.880613 0.891502
-9.474873 3.197935 1.660163
0.115992 -9.999327 0.370523
8.552132 -5.182763 -2.147133
9.901805 1.397948 -3.780463
-9.998794 0.155321 -0.491195
2.216260 -9.751317 -0.303669
-1.342889 -9.909422 -4.066881
9.168713 3.991830 1.607653
-8.856047 4.644399 -1.047733
9.427163 3.335956 -3.287599
-9.932512 1.159832 1.713816
-5.877800 8.090208 0.597295
5.879771 -8.088775 -0.960021
2.450167 -9.695188 1.806979
-9.554514 2.951485 -4.589962
9.648537 2.627875 -1.098917
3.639891 9.314032 0.361654
-9.488096 3.158486 -3.632176
-9.980018 0.631857 -2.097176
-6.381601 7.699037 -3.904750
0.032679 -9.999947 3.122854
-0.703840 -9.975200 -0.649349
-7.691381 -6.390826 -4.816516
-9.249376 3.801191 4.872396
-9.978148 0.660727 -4.552328
0.119007 9.999292 4.270291
-8.543244 -5.197402 4.063408
8.835568 -4.683241 -3.019283
5.150045 8.571875 1.537913
-9.616438 -2.743012 0.917536
-8.354213 5.496100 -2.070961
4.393659 -8.983082 2.031324
-9.418944 -3.359091 4.593439
-5.381325 8.428603 -1.257653
3.851692 9.228460 -3.939315
9.806058 1.959904 -1.733734
-6.740984 -7.386416 0.920135
9.926992 1.206161 3.195067
-5.929785 -8.052183 -3.415223
-2.585324 -9.660026 -1.585056
5.133193 8.581977 3.392756
-9.370846 3.491024 4.500779
2.065656 9.784328 -3.706936
-7.212859 6.926374 -2.793800
6.924123 7.215021 -1.785833
8.578532 -5.138948 -1.856369
8.799736 -4.750226 4.579232
3.775459 9.259909 -0.707681
3.714477 9.284539 1.253082
0.827549 -9.965699 -2.322944
-9.637044 -2.669715 -1.606581
-9.999837 -0.057030 -3.974831
-7.540279 -6.568424 1.872357
-5.276310 8.494737 1.479074
9.926386 1.211141 -3.455554
-6.572556 -7.536678 -1.323731
-8.680940 4.963999 3.883409
3.020276 9.532992 -1.903770
6.031764 -7.976078 0.474260
-8.063565 -5.914298 -3.715915
-5.508949 -8.345746 1.691193
-4.127579 -9.108408 -4.612947
4.833395 -8.754330 -3.759895
9.998707 0.160803 2.782666
-9.246738 3.807602 2.306649
-6.722359 7.403370 -2.656939
-9.961632 -0.875154 4.021870
-5.807502 8.140818 1.078452
-0.678872 9.976930 -3.989025
9.884976 -1.512367 0.496540
-8.470699 -5.314815 2.015432
-5.730020 8.195540 2.787547
5.737904 -8.190022 -3.672879
2.093396 9.778430 -3.423189
-3.453913 -9.384588 2.035621
-1.977508 9.802523 2.816248
9.529459 3.031405 4.162598
-2.829844 -9.591245 3.147201
6.886354 -7.251078 4.519460
-8.009014 5.987963 4.294212
0.085054 9.999638 0.165662
-4.133479 -9.105732 2.352527
-9.994850 -0.320899 1.764816
1.909762 9.815947 -1.667283
-7.822971 -6.229055 4.847089
-4.600235 -8.879067 1.566681
7.938856 6.080671 2.853538
-9.924869 -1.223507 0.356318
-6.575802 -7.533845 3.366250
-6.826870 -7.307109 0.675889
4.615343 8.871224 -3.721879
-5.174967 8.556852 2.149115
-0.467551 9.989064 1.228002
1.035064 9.946288 -0.845185
9.493409 -3.142482 0.759805
-1.721326 -9.850738 -1.270161
4.614345 -8.871743 3.294070
0.061864 9.999809 2.454521
9.565066 2.917107 -1.410876
3.802906 9.248671 -0.675962
-4.872475 -8.732639 4.425556
-1.086371 9.940815 0.349326
-9.719981 2.349886 0.115519
-0.432073 9.990661 4.236034
8.592589 -5.115410 2.389740
8.308432 5.565065 0.562350
9.780292 2.084678 2.339454
5.576769 8.300581 -3.218665
-6.216623 7.832854 -3.004825
-8.833723 4.686719 0.178643
8.888490 4.582003 1.855705
9.993638 -0.356640 3.761313
-1.892977 -9.819197 1.750747
1.347783 9.908758 4.175287
8.970497 4.419297 -1.492388
9.817956 -1.899403 3.951464
9.270344 3.749764 1.508101
1.569506 9.876065 2.128983
8.012828 5.982858 -2.158635
5.663897 8.241376 3.580395
9.992656 0.383173 2.947159
-3.935773 9.192915 -1.101313
-7.134261 -7.007305 -0.524735
2.665004 9.638348 1.371969
-6.735954 -7.391002 4.963542
-9.352959 3.538667 -0.265016
-9.660125 2.584955 -4.505243
-3.322737 9.431830 -2.417031
9.019492 4.318422 3.956945
-8.202003 5.720764 -1.566537
-6.521698 -7.580729 -3.957824
1.128830 -9.936083 2.493138
-7.948462 -6.068109 -4.022959
0.388310 9.992458 3.841795
6.486835 -7.610583 -2.087528
9.338168 3.577516 3.929907
-5.697398 8.218251 4.812571
9.070631 -4.209946 -3.868616
-6.079533 7.939728 0.900934
2.610014 9.653384 -1.010391
-3.111679 9.503549 0.935281
8.419812 5.395069 -2.762742
1.785953 -9.839226 -3.765330
-0.860756 -9.962886 4.278436
8.801910 4.746196 -3.752852
-9.221465 -3.868408 -1.442355
5.184763 -8.550920 1.355659
-6.065922 7.950132 1.352435
9.998316 -0.183504 -1.154840
4.595737 -8.881396 3.319584
-9.909613 -1.341478 -2.665506
7.173525 6.967104 4.429950
-9.840035 1.781490 -0.591360
-9.503503 3.111821 -3.728554
9.477600 -3.189842 -0.898881
7.064828 -7.077303 -2.444417
-8.130396 5.822083 3.974489
-8.122029 -5.833751 4.438209
9.994482 0.332156 -0.609741
-0.215349 -9.997681 0.577190
-9.939905 1.094667 2.011315
7.182428 6.957926 -1.900093
-7.048967 -7.093100 -0.775317
-7.460368 6.659047 4.127821
2.932420 -9.560383 -1.098239
9.769402 -2.135131 1.546493
9.999990 0.014233 -3.798367
1.697093 9.854942 2.788490
-1.166639 -9.931714 0.736215
7.355834 6.774341 -4.067833
4.442025 -8.959264 -1.580789
8.490503 5.283121 -1.849742
-9.999746 0.071230 -3.423726
-9.107722 4.129093 -0.177268
6.626827 7.489003 -3.440274
-9.690864 -2.467217 0.112479
9.616161 -2.743984 3.129910
6.408982 7.676258 -4.922402
9.713998 2.374499 0.905910
-3.124186 9.499445 -0.927061
0.907003 -9.958782 -1.098721
-7.367979 6.761130 0.514514
2.616449 -9.651642 -2.440525
9.047058 -4.260370 2.859866
9.882265 -1.529981 0.758324
-8.692171 -4.944307 -1.159576
9.992568 -0.385478 -1.570453
-9.478946 3.185842 -4.881733
-9.982253 -0.595502 0.751406
-3.592855 -9.332277 -4.397268
-6.330631 -7.741002 3.295194
-9.403482 -3.402135 0.354688
9.629763 -2.695861 4.274104
-2.398373 -9.708131 0.672672
-9.751346 2.216136 4.488134
0.760328 9.971053 1.087885
-3.503546 9.366171 -4.344021
-9.946229 1.035630 -1.687144
-8.410797 -5.409111 -2.992127
-9.435409 3.312560 -3.705905
6.644284 7.473519 0.902210
0.143629 9.998968 0.453844
3.930952 -9.194978 -0.209675
-4.785542 -8.780580 -2.732193
4.968499 -8.678365 -3.060440
-3.438519 9.390239 3.881223
1.530004 -9.882261 -0.690202
7.740684 -6.331020 -2.626180
3.746266 -9.271758 2.732176
-8.441080 5.361733 2.367755
0.761312 -9.970978 4.899219
9.804867 -1.965855 -3.889349
0.195236 -9.998094 -1.421985
-2.901047 -9.569949 -2.334514
-4.275966 9.039697 4.589577
8.196144 5.729156 -4.631447
8.962692 -4.435104 -2.734130
-8.384143 -5.450334 -0.413549
-7.924304 6.099623 -1.558135
1.882383 9.821234 -4.878201
-3.806462 -9.247208 3.968304
-0.710483 -9.974729 2.697963
-9.585261 -2.850046 2.519053
8.886477 -4.585905 -4.483435
6.242402 -7.812325 -4.564271
-7.717953 -6.358711 4.441124
5.124529 8.587153 3.032469
-1.699971 9.854446 -2.564379
-6.381169 -7.699395 -0.721664
6.936545 -7.203079 4.566752
-1.000772 9.949797 2.877099
-7.975967 6.031911 -0.352039
-8.290482 -5.591772 2.046503
0.650026 -9.978851 -0.361486
0.641682 9.979391 -4.564501
9.906688 -1.362914 -0.646228
9.997853 -0.207213 -4.189148
-8.468913 -5.317660 3.443882
1.593796 9.872174 0.107781
9.683028 -2.497794 -2.746523
9.999077 -0.135869 0.180367
0.833123 9.965235 -4.033266
0.484687 9.988247 1.407437
-9.358329 3.524439 -1.002177
-9.576447 -2.879524 2.696325
-4.914123 8.709271 3.206537
-9.746318 2.238143 4.640162
-9.035619 -4.284576 0.504906
-0.909851 -9.958523 -4.494653
6.194332 -7.850494 -4.571386
6.464422 -7.629629 0.403378
-0.062107 -9.999807 1.723896
2.747267 -9.615224 -0.073906
3.575255 9.339034 4.777380
-9.326095 3.608872 4.202719
4.823365 -8.759860 3.176104
3.021101 -9.532730 -2.301604
5.572773 -8.303265 3.154466
0.452126 -9.989774 2.459648
-8.607841 5.089702 -3.064601
3.724286 9.280609 -1.835821
-8.712749 4.907953 1.277756
-8.441708 -5.360742 -4.408004
7.994684 -6.007081 -3.291924
-1.499696 9.886906 -1.057998
8.356262 5.492985 1.650189
-1.887602 9.820232 2.670801
7.109487 7.032438 4.149205
5.218095 8.530620 -1.650139
3.762548 -9.265162 4.530165
3.328566 -9.429775 -1.052465
-7.771581 -6.293054 -3.789616
0.139735 -9.999024 1.280265
9.884184 1.517533 3.578640
-9.986388 -0.521596 4.485698
9.736777 -2.279291 -3.214342
7.666864 6.420217 4.376034
0.351790 9.993810 -4.551346
9.618340 2.736334 -1.221801
-6.753335 -7.375124 3.665699
-7.030719 7.111188 -2.855819
8.776071 -4.793807 -0.955460
-8.030375 -5.959285 -3.707045
-2.433411 -9.699408 -4.116503
-8.088344 5.880364 2.411613
-5.866332 8.098527 -4.335132
4.081270 9.129252 -2.792848
4.190250 -9.079747 -0.606569
-1.362020 9.906811 -1.158115
1.586201 9.873397 1.805140
-5.356457 -8.444428 -1.565447
9.658688 -2.590316 -3.440397
7.987686 -6.016383 -4.996435
4.305915 -9.025469 -3.232206
3.572820 -9.339966 -3.037880
-4.916887 -8.707711 2.450702
-6.027038 7.979650 2.790331
6.037540 7.971707 -2.592524
-6.863314 -7.272889 -4.277040
2.166278 9.762543 -0.897753
-9.822827 1.874053 -0.226290
9.993566 -0.358661 2.160764
-2.825321 9.592578 4.830632
9.646971 -2.633621 -3.650960
2.495248 9.683684 -3.043882
-2.262663 -9.740655 1.050651
9.819739 -1.890167 4.952414
6.212850 7.835847 3.449940
9.931586 1.167731 0.203995
-9.988511 -0.479215 3.594701
5.233450 8.521209 -0.771981
-9.928035 1.197549 -3.013919
7.505654 6.607962 -4.978394
3.018287 -9.533622 3.403094
-6.585094 7.525725 4.363196
-4.795339 -8.775234 1.765320
6.436800 -7.652947 -2.041693
5.054443 -8.628592 3.738997
-7.894629 -6.137983 -0.625253
-8.309602 -5.563319 -4.908784
-6.734991 7.391880 -1.519380
6.800139 7.331992 2.910315
2.416181 9.703714 0.952246
-8.873941 4.610116 4.832601
-9.091499 4.164691 4.338215
8.048152 -5.935255 -1.007692
-8.679919 4.965784 0.147250
3.514037 -9.362240 4.690933
9.536047 3.010615 -3.104183
9.939630 -1.097162 -4.868563
4.718856 -8.816598 3.748808
9.287492 3.707087 -4.791358
-9.692339 2.461414 0.518813
-8.525569 5.226343 0.150898
-9.072772 -4.205331 -3.104977
8.559885 -5.169948 1.067446
4.387771 -8.985959 -1.527048
7.530415 6.579731 -3.603026
9.979416 0.641290 3.288407
9.111600 4.120528 1.312585
-4.629356 8.863919 -2.825139
3.228161 -9.464617 4.951687
0.745639 9.972162 -2.859801
-9.364504 3.508000 -3.276884
4.762111 8.793310 1.119012
4.049067 -9.143580 -1.828525
5.134576 -8.581150 3.106349
-8.666488 4.989187 4.108221
2.305612 9.730578 -4.666027
-3.951469 9.186180 3.459162
-4.140289 9.102637 1.023339
9.390248 -3.438495 2.811955
9.969270 -0.783365 -2.643263
9.342689 -3.565691 4.745721
9.911300 -1.328963 1.578127
9.707496 -2.400941 -1.120844
-8.703397 -4.924519 -4.545412
-9.203308 -3.911409 -4.823415
9.194157 -3.932871 -3.549288
-5.291287 8.485416 1.827402
4.329048 -9.014396 0.392618
5.250126 8.510945 3.562843
9.854765 -1.698118 4.253563
7.236871 -6.901282 3.247186
7.125915 -7.015791 -3.815054
-5.899138 8.074662 3.620877
-3.268947 9.450608 -3.805805
2.066285 -9.784195 1.629942
-6.844911 7.290212 -4.157588
-9.993499 -0.360535 -0.574235
-3.358981 -9.418983 -4.262690
-0.121594 -9.999261 3.182685
-9.993967 -0.347309 2.778677
-7.989188 -6.014389 -0.580577
4.352532 9.003081 3.556843
-9.981225 0.612499 1.684656
9.971231 -0.757993 4.387255
9.999300 0.118353 2.637168
9.436159 -3.310423 1.068588
5.818649 8.132855 -0.497258
-5.999618 -8.000286 -2.672973
-5.632510 8.262858 1.375899
-7.869890 -6.169670 3.559454
-9.547873 -2.972897 4.309500
-3.001913 9.538790 -3.394405
-3.412077 -9.399879 -2.481100
4.608815 -8.874617 -0.282403
-9.570739 2.898439 -2.166021
-5.956603 8.032365 4.863052
9.986799 0.513651 2.290774
0.411596 -9.991526 -0.760956
-2.261327 9.740965 4.457355
4.580428 -8.889301 -3.916341
-6.302907 -7.763592 -0.196672
4.209179 -9.070987 -0.407039
-1.630473 9.866183 -4.486258
-2.487115 -9.685776 -2.444568
6.097182 -7.926183 4.834840
7.627292 -6.467180 3.676734
-9.951529 -0.983396 4.138868
-8.613675 -5.079823 -3.868132
1.671718 9.859278 -0.497616
-9.115693 -4.111465 -2.320276
9.179346 3.967317 0.771282
-8.845304 4.664825 -1.782907
-7.509063 -6.604087 4.311885
-4.697607 -8.827938 -4.879377
1.874560 -9.822730 -4.451302
9.038519 -4.278454 -3.233287
7.508171 -6.605102 -2.537251
-1.448034 9.894604 2.084356
8.958775 -4.443011 -0.669493
2.384756 9.711485 1.319531
-1.338459 -9.910022 -3.260414
6.555972 -7.551108 -0.545400
-1.258132 -9.920540 -3.105787
-2.545667 -9.670552 3.490024
-8.132779 -5.818755 -1.469334
-9.697487 2.441055 -3.523202
-9.381283 3.462878 2.012883
8.373493 5.466683 -3.329360
9.291793 3.696294 -4.163953
0.387451 9.992491 -4.717889
-5.725481 -8.198711 -0.806104
-7.970069 -6.039702 2.354965
-9.579579 2.869090 -1.472951
-1.669761 9.859610 -0.046747
5.494117 8.355518 -2.519819
-6.036697 7.972345 1.368700
0.884989 9.960763 -1.132925
-5.050749 8.630755 2.219775
5.414576 8.407281 4.212487
-3.254775 9.455498 -0.255198
6.394074 7.688681 3.025014
8.173447 -5.761490 4.490246
7.147881 -6.993411 1.574842
-3.394495 -9.406243 -3.883215
5.729913 8.195614 4.404298
9.676025 2.524784 -1.896341
-9.835935 -1.803991 -1.004428
-6.614544 7.499854 2.329956
-5.714703 8.206227 -0.742655
7.054808 -7.087290 3.317759
-8.042489 5.942925 4.321207
1.280594 -9.917665 0.494532
-5.691303 8.222473 -1.598020
-7.587540 -6.513773 1.074049
7.680616 6.403759 -3.542130
-6.845157 7.289982 3.545753
-0.397776 9.992086 -1.330851
8.270673 -5.621028 -3.781048
5.774967 8.163930 -0.659824
7.634444 6.458736 -0.400546
-2.542612 9.671356 2.494835
9.865968 1.631772 -0.709712
8.512944 5.246884 -2.767412
6.121891 -7.907114 2.685415
9.016520 -4.324623 4.659587
8.546042 -5.192799 -1.848900
-0.063634 -9.999798 4.928497
2.367563 9.715691 0.120625
-3.971418 -9.177573 -1.327244
-9.844786 -1.755049 -4.629173
6.415027 -7.671208 1.224543
6.629054 -7.487032 3.371588
4.559294 8.900159 -4.780235
9.882366 -1.529328 0.518341
-5.183684 8.551574 -2.431746
8.527740 -5.222802 1.407599
7.422066 6.701712 -4.570221
-2.444787 9.696547 4.815023
-9.503811 -3.110881 1.478640
6.782439 7.348369 3.800056
-2.608617 9.653762 2.380035
1.628674 -9.866480 3.898398
7.982594 6.023139 -3.398098
5.611248 -8.277312 -4.678491
5.587631 -8.293273 4.959233
9.059340 4.234188 3.380840
1.063445 -9.943293 -2.553068
-4.697688 -8.827895 4.275555
-9.511365 3.087708 -0.981862
-4.885294 8.725475 -0.793640
-2.036638 9.790409 3.994415
6.736392 7.390604 -1.190814
-1.937835 9.810443 0.292778
-7.245254 -6.892481 1.076319
-1.997410 -9.798487 1.690064
-1.465286 9.892064 3.873020
-6.082399 7.937533 3.284752
-9.219749 -3.872496 -3.367620
-2.673011 -9.636131 -3.170244
9.395968 3.422832 0.989247
9.749765 -2.223078 0.529140
8.533805 5.212885 -1.692532
-2.956889 -9.552843 0.602900
-8.637449 5.039292 2.537787
-9.910546 -1.334573 4.689105
-9.994616 -0.328105 4.254134
-4.862289 8.738315 2.287253
-8.320912 5.546389 -0.981647
8.061061 -5.917710 -2.559906
-2.037310 9.790269 -3.968966
9.513408 -3.081407 0.496327
9.649945 -2.622700 -2.112919
9.943327 1.063131 2.595115
-0.023433 -9.999973 0.431906
7.616887 -6.479432 -0.260884
-0.042452 -9.999910 0.211951
-9.842153 1.769752 -0.578660
3.982195 -9.172901 1.495609
2.171061 -9.761480 2.129371
-4.394481 8.982680 -0.351952
-9.011832 4.334384 1.245485
-9.279120 3.727993 2.517147
9.970554 0.766840 -2.151926
-9.644417 -2.642955 0.039762
5.824695 8.128525 -2.945528
-9.311177 -3.647188 -2.207295
9.855494 1.693881 -2.209375
7.769164 -6.296037 4.220675
-9.762201 2.167818 2.070677
5.634120 8.261761 -0.721081
-0.643565 9.979270 -0.823290
7.653028 -6.436705 0.559159
-6.713408 7.411488 -2.789963
0.952817 9.954504 0.459025
-9.601280 -2.795607 4.709198
-9.899998 1.410686 2.298710
8.512593 -5.247452 -4.673331
-6.999051 7.142358 2.860192
-2.403242 9.706927 0.780827
-1.638383 -9.864872 -3.565686
-8.313221 5.557910 0.411688
-9.712937 -2.378835 -4.879329
5.159558 -8.566152 1.243208
-8.848974 -4.657859 -0.493634
-8.425095 -5.386814 -0.546122
-0.042939 -9.999908 3.998605
-1.921026 -9.813748 -0.805553
9.333286 3.590232 -1.153110
-1.521798 9.883528 -1.126549
-9.608205 -2.771715 -1.402710
-9.999930 0.037377 3.871489
9.989074 -0.467339 -0.648223
1.456880 9.893306 4.095769
9.586376 -2.846294 -4.271219
9.620186 2.729840 -4.006739
8.437517 -5.367337 0.980870
9.186642 -3.950394 0.538094
1.544126 -9.880065 -2.588353
8.433489 -5.373663 -0.587939
-1.650421 9.862865 3.394542
-9.577282 2.876745 -1.073985
1.792108 9.838107 -0.728889
-1.455371 -9.893528 -4.686420
3.124481 9.499348 -2.528579
-4.903625 -8.715186 -1.342973
-9.910875 -1.332128 -2.624528
4.730320 8.810453 -3.808720
9.753211 -2.207912 -2.412034
-3.795984 -9.251514 4.380360
9.274877 -3.738538 4.780907
8.409941 -5.410443 3.401637
-0.851043 9.963721 -0.515103
-3.151541 -9.490405 2.945857
7.604536 6.493923 -4.868788
4.961449 8.682397 -0.470704
-9.506603 -3.102337 2.935778
-5.533668 8.329377 3.250706
-0.469082 -9.988992 -1.317193
7.185110 6.955156 -4.437988
-8.584644 5.128732 -0.185150
-9.780780 2.082390 2.938735
8.876694 4.604813 1.510725
0.402581 -9.991893 0.494321
-0.456757 9.989563 1.302812
5.118556 8.590715 -1.242307
-9.797797 2.000794 1.740527
3.921482 9.199021 1.291569
-4.201637 -9.074483 2.805284
-9.834477 -1.811924 0.107741
9.359858 3.520377 -1.347470
-7.198873 6.940909 -3.295001
-7.667340 6.419650 -3.406436
-0.019228 -9.999982 -2.876089
-9.200568 -3.917850 0.981646
9.652901 -2.611800 3.939971
9.391456 -3.435193 4.456760
9.921873 -1.247571 -0.252884
9.954974 -0.947892 0.038822
9.000147 4.358596 4.704257
-8.832746 4.688561 -3.689085
4.729155 8.811078 4.994757
6.158118 7.878933 -3.155190
-8.550707 -5.185115 1.252056
-5.067004 8.621222 4.166510
8.721869 -4.891728 4.330055
4.386929 8.986371 3.070727
9.361924 -3.514878 -1.999345
9.086312 -4.175995 1.944013
-6.787197 7.343974 -3.784744
-9.997492 0.223954 1.039437
-4.789021 8.778683 -3.412421
-3.239345 9.460795 3.997118
-9.975004 0.706602 -1.519224
1.616816 9.868430 1.788861
8.978627 -4.402756 -3.897590
8.726040 -4.884284 3.938819
9.785731 -2.058996 1.214255
9.014326 4.329196 0.129153
4.642416 -8.857086 1.921584
-9.415185 -3.369614 -2.778633
3.818728 9.242149 -4.834827
1.194233 9.928434 -4.937232
0.616115 -9.981002 3.517465
-1.569654 9.876041 -0.474868
9.465648 -3.225138 0.253623
1.549204 -9.879270 1.944032
-9.995062 0.314214 2.270994
-9.731730 -2.300746 0.206512
9.889170 1.484693 -1.187602
-8.383259 -5.451694 0.361461
-9.227037 3.855100 -3.176638
-4.111293 -9.115771 0.333600
7.185895 -6.954345 -0.980671
-7.680990 6.403311 3.108056
-1.352623 9.908098 -2.166650
-5.262959 -8.503015 -1.064911
-5.765379 8.170704 -2.508684
-7.029010 -7.112877 2.687919
7.570513 -6.533554 -0.334567
3.665430 -9.304011 4.900374
6.235090 7.818162 4.920207
-2.126668 -9.771248 -1.379629
9.994027 -0.345564 -0.125385
-9.991066 0.422607 -3.761442
-9.999976 -0.021808 0.696158
-9.999998 -0.006505 3.117576
-3.095797 9.508735 0.747166
4.585299 -8.886790 0.732497
9.128382 4.083215 -1.677894
9.456645 -3.251441 2.610608
-7.437845 -6.684195 4.663702
3.969697 9.178317 2.677719
-4.564865 8.897303 -1.875147
9.253847 -3.790293 2.295128
-9.919168 -1.268897 0.858747
-0.710211 9.974748 -3.498211
-2.344792 9.721211 -3.931776
-9.462908 -3.233166 4.687476
4.316526 9.020399 1.629421
5.975261 -8.018495 3.013249
-8.759719 -4.823622 2.791387
-8.949840 4.460983 -2.213427
-6.584516 7.526231 4.748125
-9.270971 -3.748213 1.961944
-5.408354 -8.411284 -3.074358
4.584782 -8.887056 -4.104358
9.900101 -1.409962 2.235374
-8.624430 -5.061543 3.854255
-3.893406 9.210939 1.446591
-3.792054 -9.253125 3.587454
-9.854556 1.699330 -4.551993
8.862386 4.632290 -4.538629
7.435882 -6.686378 2.093707
-3.137741 9.494977 -2.345536
6.011016 7.991726 -0.523113
9.333989 -3.588404 -2.220438
2.861802 9.581758 -2.360508
-7.049295 -7.092773 0.435971
8.014404 -5.980746 -3.017522
9.860133 1.666666 -0.328794
9.619053 -2.733829 -3.315466
7.075856 7.066276 -4.297449
-3.794417 -9.252156 -1.708844
-2.224210 -9.749507 0.739224
-9.051830 4.250221 -3.991933
1.275608 -9.918308 0.846749
9.057871 -4.237331 2.697193
6.086698 7.934237 -3.084661
9.803969 1.970328 0.289265
9.891573 1.468602 3.189473
9.964367 0.843445 1.286619
-2.386904 9.710957 1.667933
-9.576116 2.880625 2.778690
9.477470 -3.190228 3.623846
1.644986 -9.863773 -3.094851
8.683492 4.959533 -0.414105
-0.145061 -9.998948 0.697260
6.155424 7.881038 3.272836
-9.806074 1.959825 3.116987
-5.081154 -8.612890 -2.957803
-8.510458 5.250914 0.593761
9.933126 -1.154556 -1.404219
6.188758 -7.854889 -3.009956
-5.435691 8.393644 1.392038
-8.704158 4.923173 4.768912
-3.257749 9.454473 -2.650661
-3.767454 -9.263168 -2.162830
-9.470784 3.210024 -0.878503
9.621785 -2.724199 -4.462689
7.212287 6.926970 4.590180
-9.428652 -3.331746 -3.962070
-9.885976 1.505815 -3.091261
-2.371583 -9.714710 1.340803
1.046646 -9.945076 1.287134
0.318336 9.994932 2.108939
-9.948013 1.018350 2.278652
-8.475164 -5.307692 -3.925220
-9.241498 3.820302 3.031017
2.707535 -9.626487 4.454212
4.473139 8.943770 -0.957746
8.719504 4.895942 0.079692
-6.124412 -7.905162 0.719581
-9.990879 -0.427009 -0.330630
-1.833083 9.830555 -1.731685
8.286184 5.598139 -2.123342
7.416176 6.708229 3.074869
0.529570 9.985968 -0.831332
5.576995 8.300429 2.235373
-3.235986 -9.461945 -3.655604
-1.694908 -9.855318 -1.491308
3.295686 -9.441316 4.208752
4.105148 9.118539 -4.956719
-7.640088 6.452059 -1.857903
-9.842749 -1.766432 3.465337
-1.411222 -9.899922 2.463534
-4.325489 -9.016105 3.346226
-4.388944 8.985387 -1.161830
-1.174140 -9.930831 -3.235572
-5.085592 8.610270 -1.053583
-7.093828 7.048234 -2.380783
5.058958 -8.625946 -3.940762
-4.708535 -8.822114 -1.399301
-8.924312 -4.511834 -4.200430
1.630529 -9.866173 -3.866848
-2.046875 -9.788274 1.407588
4.858429 8.740461 3.643890
2.983271 -9.544637 2.711989
-9.660181 2.584743 -0.107509
-5.899649 -8.074289 -3.112155
9.979523 0.639626 2.775889
0.489677 -9.988004 4.193907
-8.411954 -5.407312 -2.629141
3.951142 9.186320 -2.894553
-9.999622 0.087003 0.153598
9.767504 2.143797 0.714129
2.177199 -9.760113 -2.563040
5.143921 8.575551 -2.940852
-3.000508 9.539232 3.664150
5.485217 -8.361363 -4.928136
-4.455412 8.952614 4.649612
8.258478 5.638932 -1.473140
9.814105 1.919205 3.010552
6.640345 7.477020 0.933932
-9.843764 1.760768 4.558999
-9.212366 3.890027 1.111107
8.577315 5.140979 0.645093
9.897988 1.424726 -3.971392
-2.953049 9.554031 3.593900
-7.875808 -6.162114 -2.248526
5.127379 8.585452 2.610205
-9.500507 3.120956 -1.716014
-1.382710 -9.903944 1.990555
-1.862192 9.825082 -3.783093
-8.517679 -5.239193 -0.966504
-8.606773 -5.091508 -3.353663
-9.997072 -0.241971 4.818758
-6.094809 7.928008 3.697985
-7.025350 -7.116492 2.717055
-1.219677 9.925341 -4.716342
1.435231 9.896470 -2.327733
9.019425 -4.318562 3.285487
9.565604 2.915343 0.044404
5.456798 8.379938 -3.299057
-6.439350 7.650802 -2.820135
-2.506295 9.680831 4.292616
-9.918249 -1.276064 -2.881439
8.225323 -5.687183 -1.197534
3.461908 -9.381641 -3.207690
9.926117 -1.213344 -0.237658
4.665717 8.844834 3.255425
-9.887278 -1.497243 4.939395
-6.479105 -7.617165 -0.418163
8.648838 -5.019721 -1.152178
-2.329210 9.724957 -3.890118
5.306504 -8.475908 3.542363
8.923490 4.513461 1.454996
-8.377631 5.460338 -3.861766
9.836834 -1.799083 0.387275
9.951810 0.980546 -1.578621
8.409470 5.411175 2.866230
9.305165 -3.662501 -2.732099
0.464114 9.989224 1.089243
8.536150 -5.209044 2.055846
-0.937639 -9.955945 -1.998412
9.317366 3.631347 -4.897228
2.447580 -9.695842 2.664235
8.585775 5.126837 -0.397028
-8.786856 4.774008 -1.677308
1.245138 -9.922179 -0.060252
-9.111917 4.119826 1.315358
-1.003321 9.949540 -4.489303
-8.626044 5.058791 4.466781
4.473492 8.943594 2.495289
-1.431284 -9.897041 3.648451
-9.982028 0.599259 -0.112238
-9.998621 -0.166060 1.636833
1.170357 -9.931277 4.437974
-4.833016 8.754539 1.778226
6.253325 -7.803584 1.695784
-9.980389 0.625964 -0.800091
5.833743 8.122035 -1.482327
-9.868919 -1.613825 2.907099
4.061715 9.137969 -1.276812
6.642408 -7.475187 -1.109696
7.250617 6.886839 2.231401
9.833666 -1.816320 -0.795433
-8.869951 -4.617788 4.333654
-9.024525 4.307894 1.382138
5.315066 8.470542 4.667416
6.313301 -7.755142 -2.709623
9.658362 -2.591532 4.345708
-0.260673 -9.996602 -3.340835
-4.699782 8.826780 -4.378041
-7.458713 -6.660901 3.972660
-9.953605 -0.962155 4.201330
-7.568126 6.536319 0.871855
3.863175 9.223659 1.322860
2.754175 9.613247 -1.881636
-8.728187 -4.880445 0.469348
-9.669426 2.549943 -4.652090
5.966380 -8.025105 4.813401
-7.248792 -6.888760 -0.974431
-1.408970 9.900243 1.942764
-1.431164 9.897059 3.646551
-7.604056 -6.494485 -2.568002
9.962536 -0.864797 4.351661
8.019783 -5.973532 -3.686752
-2.954780 -9.553496 -4.610887
6.812441 7.320563 3.963714
-5.188280 8.548787 1.716129
4.702861 -8.825140 0.550141
-3.883828 9.214981 -2.080062
-0.333445 9.994439 4.391725
9.975363 -0.701520 0.789817
6.076134 -7.942329 -4.989864
3.960450 9.182311 -0.068748
-8.130306 5.822209 3.875227
2.879986 9.576308 -4.768740
-6.699054 -7.424464 -3.655835
0.254093 -9.996771 0.620926
-5.409465 8.410570 -2.483278
-4.022794 -9.155170 -0.984906
9.084584 -4.179752 -1.421960
9.971740 -0.751265 -1.945573
9.608039 2.772291 -1.911479
-9.364304 -3.508535 2.787011
9.671070 -2.543698 -4.557097
9.337553 3.579120 4.090750
9.684247 2.493064 -1.788650
-6.943086 7.196774 -1.466330
8.253704 -5.645916 -1.320064
-5.779678 8.160596 -1.409670
6.349549 7.725492 0.914034
7.857510 6.185429 4.103838
1.924345 9.813098 0.437983
2.946931 -9.555919 -4.296788
2.354059 9.718972 1.935243
-8.653145 5.012293 -4.173338
-9.966761 -0.814665 -1.712620
-8.504510 5.260543 -0.516605
-4.798028 -8.773763 -3.963528
9.945655 1.041131 2.382088
-3.758858 9.266660 4.614712
6.360057 -7.716843 -2.064989
5.822867 -8.129835 -0.974150
9.065019 -4.222018 -3.981663
-4.848738 -8.745841 4.047756
-5.603379 -8.282641 4.142223
-6.809874 -7.322952 -0.999080
-5.705622 8.212544 2.204769
8.382177 -5.453358 -3.687617
8.947757 -4.465160 4.233919
9.049015 4.256210 -0.594900
5.217965 -8.530700 1.287214
1.093492 9.940034 -0.306281
1.385273 -9.903586 3.918884
5.123787 8.587596 -2.549660
0.149811 9.998878 2.009449
-5.570994 8.304458 -2.348782
-8.112596 -5.846862 -4.324225
-1.726933 9.849756 1.963780
2.382938 -9.711931 1.163461
-9.221408 -3.868545 3.581238
-9.872680 1.590660 -1.537614
-6.885244 7.252131 1.174617
-1.152048 -9.933418 4.127498
8.690764 4.946780 -4.354305
-6.977719 -7.163201 3.291088
-9.867010 1.625456 1.319681
-8.318076 5.550641 -0.449130
-8.734684 -4.868809 3.692074
-4.319595 -9.018930 -0.555127
-1.132181 -9.935702 -4.398024
6.149357 7.885772 -1.810915
1.468724 9.891554 4.593326
-4.200256 -9.075123 0.046158
8.978070 -4.403891 -2.727989
-3.290920 9.442979 4.426891
9.140966 -4.054966 4.733379
-8.216420 -5.700039 -1.267847
0.782678 9.969324 0.962734
-1.871338 -9.823344 3.473233
-8.221061 -5.693343 3.079146
-9.958360 -0.911628 0.092824
-7.197039 6.942811 -1.782976
8.590047 5.119677 -1.659067
9.978108 0.661340 -3.156267
-5.558296 8.312963 -3.250562
-0.065333 9.999787 -0.203483
-0.425936 -9.990925 1.780218
-5.242724 8.515506 -4.495731
-9.999918 0.040478 4.431868
-5.447113 8.386236 -1.548388
9.668636 -2.552934 -1.186259
-8.808458 -4.734032 2.333977
8.274203 5.615831 3.822106
-3.338375 9.426307 1.612765
-9.864086 -1.643108 -3.607774
6.550503 -7.555853 -1.139872
-8.566123 -5.159606 4.775933
5.986897 -8.009811 -2.002174
9.887675 -1.494621 -0.753864
4.309549 -9.023735 -0.836995
-8.682434 -4.961384 4.269814
3.475703 9.376539 -3.241607
9.752801 -2.209721 1.352166
6.894794 7.243052 -1.065078
9.956096 0.936034 0.231626
1.237244 9.923166 0.213434
7.345228 6.785840 -4.206882
9.344740 -3.560313 1.600486
-8.853818 4.648645 -4.853796
-5.113303 -8.593843 -3.679859
-3.111538 9.503596 3.869632
1.526794 -9.882758 -0.629745
6.728588 -7.397709 2.310172
1.330520 9.911091 -3.937476
5.287754 -8.487618 2.791690
-9.337725 3.578671 0.849917
3.486376 9.372576 -2.732539
2.084055 -9.780425 2.899953
-3.643336 9.312685 3.095298
9.817221 -1.903199 -1.721194
-9.228149 3.852436 -0.540434
-9.065769 4.220406 -3.029920
-1.650602 -9.862835 2.089958
6.939686 7.200053 3.676751
4.681311 -8.836590 4.210035
9.975214 0.703643 4.932635
9.455814 -3.253858 2.351832
-0.552163 -9.984744 -4.415606
-5.444678 8.387817 0.134475
1.123384 -9.936700 2.017188
8.417276 -5.399024 3.959678
-6.862622 7.273543 2.967635
6.170685 -7.869095 -2.902282
-6.203775 7.843033 3.801345
-7.737238 -6.335231 3.752795
-4.737035 -8.806844 0.394088
-4.342881 -9.007740 -1.590245
1.093628 -9.940019 -3.864208
-9.544970 -2.982206 4.964221
8.646214 5.024240 4.639993
-2.816184 9.595265 -3.975731
9.373649 3.483489 -4.153086
9.999969 0.024838 -2.357606
-1.309352 9.913909 -0.865197
-6.701149 -7.422574 -3.722538
1.922698 -9.813421 -2.446466
9.137034 -4.063818 -1.206908
-9.514023 -3.079506 -0.022212
-8.581462 5.134053 2.662029
-9.972210 -0.745002 0.106501
-1.016308 -9.948222 -1.860323
8.369103 -5.473401 -2.040271
-9.875139 -1.575316 -2.045607
4.749220 -8.800279 -0.449402
-9.996268 -0.273184 -2.104525
7.306615 -6.827399 -1.647110
5.491177 8.357450 -3.891924
0.988234 9.951050 2.648125
-1.733779 9.848554 -2.537774
3.317158 -9.433794 3.093753
-3.446275 -9.387395 2.109614
9.206125 3.904775 -2.190386
-8.522281 -5.231703 -3.019710
8.127970 5.825470 2.402462
-9.441369 3.295534 -0.395566
4.777778 8.784807 -1.501331
9.072225 -4.206510 2.173142
4.941475 -8.693781 -2.070173
-8.695024 4.939288 -3.950997
9.481562 3.178048 -1.542893
9.822107 1.877823 -1.886914
9.443189 -3.290317 -0.661043
-1.014689 -9.948387 4.032999
-9.378627 -3.470066 4.114017
-0.741474 -9.972473 4.001345
-3.788865 -9.254431 1.788618
4.828394 -8.757089 -4.698335
9.009902 -4.338394 -3.136127
-6.728546 -7.397748 -1.640060
0.672877 9.977336 -1.424340
9.933046 -1.155251 -2.424767
9.953092 -0.967452 -3.867265
5.193596 -8.545558 1.211402
9.402243 3.405557 0.735958
-9.814829 1.915497 -0.502492
-6.970779 7.169954 -2.704711
9.532700 3.021196 -1.947468
-9.979256 0.643783 -0.384060
-1.624456 -9.867175 -0.153976
-9.891411 -1.469687 -0.715698
-9.980770 0.619868 -1.792873
4.042075 9.146673 -4.536376
3.080868 -9.513583 0.837723
0.579291 9.983207 -2.041803
-0.785245 -9.969122 0.910553
-8.715846 4.902452 0.466570
3.028956 -9.530238 4.552060
7.323963 -6.808786 -3.228603
-9.479447 -3.184349 3.118139
9.435904 3.311149 -0.255482
0.333745 -9.994429 -1.310539
9.992893 0.376936 3.581570
-6.911680 7.226942 -2.395143
9.999419 0.107801 3.410783
-7.932086 -6.089500 2.123792
8.300575 5.576779 1.238506
4.710556 8.821035 -1.897326
-5.376026 -8.431984 -4.548206
9.710429 2.389054 4.280722
9.321113 -3.621719 2.610301
-5.346016 -8.451042 -1.365864
-9.931937 1.164741 3.588904
-9.405223 -3.397319 -1.710972
0.219122 -9.997599 -0.772048
-9.817060 1.904029 1.451841
-4.392057 -8.983865 -0.090759
0.631336 9.980051 1.815319
3.479860 -9.374997 0.191123
9.585085 2.850639 3.094361
1.251906 9.921327 0.522293
-2.293293 9.733489 4.072503
-5.346157 8.450953 4.255170
2.313423 9.728724 -4.385457
0.981242 9.951742 0.754776
-8.575881 -5.143370 0.164913
-5.621959 8.270041 1.789875
-2.518959 9.677543 -0.040860
3.256879 9.454773 -3.168052
4.631041 -8.863039 1.304097
8.093675 5.873025 4.036874
7.280540 -6.855198 -3.704104
0.872573 9.961858 -1.146144
-5.135140 -8.580812 -3.983623
-3.873958 -9.219135 0.776094
7.622408 -6.472936 -1.454070
2.692260 -9.630770 -4.816169
-9.565388 -2.916049 4.832695
6.912449 -7.226206 -0.939681
-6.579624 -7.530508 -1.947207
9.914886 -1.301934 4.878450
9.957570 0.920223 -4.630569
6.605951 7.507423 3.206842
-8.568130 5.156272 -2.242456
9.289769 -3.701377 4.072767
