8.886204 -4.586434 -7.866547
-1.541177 -9.880525 9.161608
2.109237 -9.775025 -8.770031
7.025557 -7.116287 7.407149
3.041652 -9.526193 -2.717814
-0.785727 9.969084 -2.794597
9.620939 -2.727185 -0.296947
9.508737 -3.095790 0.652260
8.352275 -5.499046 6.239105
9.269724 3.751295 0.435563
1.747318 -9.846161 5.982817
9.659406 -2.587637 -9.616956
5.034655 8.640153 -8.706250
9.560557 -2.931851 9.092103
2.023651 9.793101 8.631070
0.776376 -9.969816 6.475685
5.472595 8.369630 -7.385870
9.945584 1.041808 -5.951325
9.941598 1.079183 -8.104801
9.615592 2.745978 3.501152
6.749827 7.378336 -2.838367
7.903136 6.127026 -9.867863
0.636688 9.979711 -7.966307
-0.651198 -9.978775 -9.078293
9.988441 0.480676 8.852621
7.686875 -6.396245 -5.982112
8.163471 -5.775615 -2.017256
0.006853 -9.999998 9.880598
7.305139 -6.828979 8.069922
6.980733 -7.160263 -0.656207
-1.957354 9.806567 -9.731377
9.997813 -0.209121 -4.439790
3.308811 9.436724 9.895530
8.442809 5.359009 9.363550
7.707245 6.371685 0.381131
3.747321 -9.271331 -9.333302
6.588529 -7.522718 -3.897215
-1.327729 9.911465 8.102584
8.042953 -5.942298 2.732965
9.992806 -0.379248 -7.354773
7.191579 6.948466 8.086404
8.670977 4.981381 -3.580491
3.053517 -9.522396 -2.916352
4.462320 8.949173 6.318286
-0.429275 9.990782 -6.716849
-0.646099 9.979106 3.371049
-1.233208 9.923669 -9.136068
2.258556 9.741608 3.857302
-1.305964 -9.914356 6.513490
-1.507231 -9.885760 -8.497803
1.679203 9.858006 3.640465
7.484751 -6.631629 -2.931784
9.851747 1.715542 2.446528
0.998608 9.950014 -7.255954
9.716561 -2.363988 9.659785
6.743682 7.383953 -0.875762
8.846011 -4.663485 -7.966741
9.949105 1.007627 -1.270971
9.999762 -0.068961 6.005297
5.034369 -8.640320 0.604356
9.768427 2.139589 -4.818272
0.498207 -9.987582 -6.286257
5.376411 8.431738 -5.667546
6.763562 7.365747 8.614358
-0.821427 9.966206 -7.070537
0.166148 -9.998620 -9.780494
6.908023 -7.230437 3.735726
9.974510 -0.713549 4.890081
0.533390 -9.985765 -5.929131
1.794482 9.837674 -1.903285
9.014489 4.328854 3.882813
5.426532 8.399569 8.892267
9.998056 0.197174 5.701001
9.628741 -2.699509 9.945798
8.992251 -4.374863 5.856819
0.576082 9.983393 1.738595
9.947335 -1.024953 4.624199
9.994786 -0.322895 -1.790031
8.126677 -5.827274 -8.593264
8.372118 -5.468788 2.429659
0.395374 9.992181 9.110421
2.225974 9.749105 -1.403886
0.602573 9.981829 7.990827
9.423531 -3.346202 -0.828129
1.404648 9.900857 -1.983397
1.977193 -9.802587 5.940634
9.084981 -4.178891 8.588185
4.797115 8.774263 4.278781
9.780242 -2.084916 3.324285
7.241375 6.896557 8.810703
3.853674 9.227632 -8.124854
-1.719637 9.851033 8.336439
1.124794 -9.936541 1.301515
8.039252 5.947304 -2.066673
9.471977 3.206502 -6.858748
5.209180 -8.536067 -9.249626
5.987581 -8.009299 5.136781
9.900288 1.408652 5.435271
9.546583 -2.977038 -2.988861
6.789484 7.341860 -8.513694
9.998455 -0.175765 9.965616
-0.007142 -9.999997 -3.019461
3.703121 9.289074 0.461869
1.251510 -9.921377 0.881768
2.104809 -9.775980 4.953149
6.170615 -7.869149 2.484851
9.454059 -3.258953 -3.274950
9.932867 -1.156789 4.169280
9.986598 -0.517554 -6.101250
7.393113 6.733638 2.937963
9.989984 -0.447456 -0.148426
-0.769291 -9.970366 -1.683658
9.883497 -1.522003 7.432468
3.747133 -9.271407 7.943179
2.151081 -9.765902 -1.457932
7.663537 6.424188 7.881069
1.865771 -9.824403 8.374168
4.979600 8.672000 0.043076
8.783499 -4.780183 -0.161315
-0.421619 9.991108 -7.179297
9.917756 1.279889 -0.122934
7.545751 6.562137 1.013734
-0.133555 9.999108 -8.721031
8.495355 5.275314 8.386602
9.847290 -1.740942 7.345379
-1.881367 -9.821428 0.934369
3.415943 -9.398475 8.596316
9.728558 -2.314122 1.144426
8.531442 -5.216752 -0.993643
8.950885 4.458885 2.358557
7.490967 6.624607 -0.544277
9.982152 0.597188 -5.308967
4.831723 8.755253 7.125544
1.625917 -9.866934 -7.766544
9.329718 3.599495 3.202935
3.745792 9.271949 3.623345
9.870356 1.605013 -4.158792
5.347880 -8.449863 1.306914
5.383435 -8.427255 -2.470147
1.982103 -9.801595 -3.236028
7.051456 -7.090626 6.428184
8.981663 4.396560 5.681992
3.298341 9.440389 -5.094123
8.682998 -4.960397 5.987072
0.959151 -9.953895 -2.643337
0.401908 9.991920 -4.992601
-1.217007 -9.925668 9.598698
4.305879 9.025486 4.727768
9.024134 -4.308713 -7.070145
4.547526 -8.906178 -4.105857
5.253357 8.508951 -2.143336
6.387229 -7.694368 -8.506876
7.791046 6.268940 1.436903
-0.088493 9.999608 -9.565922
9.620978 -2.727046 8.426820
7.646433 6.444538 0.948818
4.977844 -8.673008 -1.683927
7.380350 6.747624 -4.135413
9.917375 1.282834 -5.196270
8.778911 -4.788604 3.288923
-0.602807 9.981815 0.597503
9.993133 -0.370523 7.481303
3.479063 -9.375293 -3.414059
5.484410 -8.361893 9.289464
4.805139 -8.769871 8.299391
5.136311 8.580111 1.439855
8.262154 5.633543 2.085043
7.130899 7.010726 9.391708
9.870673 1.603067 8.490102
6.327028 -7.743947 8.871525
0.285128 9.995934 6.053049
9.869343 1.611230 9.626504
3.785556 9.255786 6.776472
8.053968 5.927360 -2.275011
9.907915 1.353967 7.206931
1.616188 -9.868533 8.480713
6.619483 7.495495 5.112881
9.099115 4.148024 -6.667650
7.540591 6.568065 9.599288
9.721740 2.342598 3.811198
8.265935 -5.627995 -5.271463
6.732844 -7.393836 3.185752
9.936279 -1.127102 -0.780389
7.832059 -6.217624 1.855058
9.091729 4.164189 -8.177488
-1.147430 9.933952 -6.494411
3.281349 -9.446309 7.501854
9.849964 1.725751 -8.128703
1.481082 -9.889712 6.756638
5.140213 -8.577774 -5.507672
9.939996 1.093835 1.139407
6.056921 -7.956991 5.931700
2.089285 -9.779309 -0.749493
9.084987 4.178877 -7.877586
7.179433 -6.961016 -8.598605
9.894864 1.446262 5.825770
9.862615 1.651916 -5.125523
1.444603 -9.895106 2.452117
8.982215 -4.395431 -5.841558
-1.716885 9.851513 2.728972
3.184528 -9.479387 2.210046
-0.502395 -9.987372 -1.040990
8.860494 4.635909 -4.124671
1.031040 -9.946706 -0.446598
1.302997 -9.914747 -4.241110
7.780259 -6.282322 -6.582523
8.729654 4.877821 2.305577
6.631226 -7.485108 6.975737
9.928875 -1.190565 5.987390
9.917594 -1.281143 -5.403125
6.278955 7.782976 9.280383
8.791012 4.766352 5.662204
8.142790 5.804736 -5.696426
-0.730267 9.973300 0.429719
1.173627 9.930891 -8.995404
2.877196 -9.577147 3.164353
8.988397 4.382776 -0.857467
4.618266 8.869702 8.057452
2.711859 -9.625270 1.083336
2.415418 9.703904 2.143621
9.226179 -3.857153 0.150868
-1.679771 -9.857909 4.804128
-0.845149 -9.964222 -2.662617
4.515427 8.922495 0.315508
-1.404193 9.900921 7.974426
9.414504 3.371514 -3.080379
0.862284 9.962754 3.320373
9.729365 2.310725 -8.443748
6.853992 7.281676 8.693417
9.144932 4.046014 9.995664
9.627523 -2.703848 -6.203633
3.665497 9.303985 6.999260
5.733116 -8.193374 5.758331
7.678842 6.405886 3.825543
7.509617 -6.603458 0.505472
9.664833 -2.567295 4.251230
6.933839 -7.205684 -5.171116
9.949779 1.000945 -7.681452
7.362642 -6.766942 -6.655176
1.252816 -9.921212 -1.001829
2.975580 9.547037 3.061537
3.519480 -9.360196 3.439004
0.121444 -9.999263 -2.331639
2.516631 -9.678149 0.721622
8.139972 -5.808688 -3.507572
8.346098 -5.508417 -7.371792
9.931885 1.165187 -6.165238
0.666507 9.977764 0.472943
2.985631 -9.543899 -1.381910
8.077567 5.895160 -2.578520
4.834896 8.753501 -1.071523
7.089344 -7.052745 -4.893089
3.326919 -9.430356 -0.156424
4.889255 8.723256 8.050401
8.571589 -5.150520 -9.498112
6.933033 -7.206459 -3.526131
7.132626 -7.008969 -6.729735
0.242062 -9.997070 1.440815
9.427956 3.333714 -5.136520
4.390582 8.984586 -4.476036
8.217475 5.698518 8.771306
9.277244 3.732660 -2.471304
9.904558 -1.378304 1.204737
7.009580 7.132025 4.914942
2.812875 -9.596235 1.485340
8.619394 -5.070114 2.044328
0.233115 9.997283 8.944763
7.029335 -7.112556 9.459445
8.806882 4.736964 1.569449
2.590449 -9.658653 -7.212518
4.102379 -9.119786 -4.371899
3.114384 -9.502663 -4.758422
8.703294 4.924700 -3.058809
-1.478751 9.890060 -8.960798
1.295043 -9.915789 8.677473
4.267542 9.043677 5.907065
4.122833 -9.110557 7.352204
-1.661592 9.860989 0.338947
9.026582 -4.303583 -9.519480
9.672928 2.536624 5.872847
3.755531 -9.268009 1.016235
3.656116 -9.307675 9.833511
8.699869 -4.930749 -2.545301
7.540891 6.567721 -8.905649
-0.459112 9.989455 2.836135
8.060046 -5.919093 9.844563
1.605672 9.870249 1.920386
-1.367667 9.906033 0.560339
9.306661 3.658698 6.933444
4.685076 -8.834594 2.847257
6.223255 -7.827586 3.092288
8.377703 -5.460229 7.798221
4.541846 8.909076 -0.838728
8.899734 4.560124 -0.010863
6.816086 7.317170 -5.369136
-1.996043 -9.798766 -7.800031
1.682458 -9.857451 -7.711208
4.699246 8.827065 7.413007
3.144938 9.492595 -4.866541
9.607144 2.775390 3.781137
9.913520 -1.312294 -8.837146
9.969367 0.782125 -6.047280
9.685380 2.488657 8.701235
-1.947470 9.808535 8.068659
4.693464 8.830141 -2.056737
3.193715 -9.476296 -5.055140
6.041330 7.968835 1.573922
1.396014 -9.902078 -3.738756
9.729988 -2.308103 -5.259002
9.899639 -1.413208 -9.467597
1.068308 -9.942772 -9.413221
2.562118 9.666207 -0.806447
7.490809 -6.624785 9.076205
2.357884 -9.718044 -7.384883
9.943418 1.062277 -4.850194
5.264269 -8.502204 8.176711
1.147460 -9.933949 7.085538
-0.363193 9.993402 8.657356
0.718664 -9.974143 -3.295864
3.525900 -9.357779 -5.886740
2.764802 9.610196 -8.317467
2.022028 -9.793437 4.887524
0.866690 -9.962372 0.628554
9.176873 -3.973034 9.277732
8.215571 5.701262 5.133447
6.714383 -7.410605 -8.649014
9.572214 2.893566 -8.449832
6.342501 -7.731279 -2.076265
9.197408 -3.925263 1.817853
9.106025 4.132833 9.064192
-0.181131 9.998359 1.990233
4.680770 -8.836877 -5.378722
-0.503805 9.987301 -8.637176
9.018400 4.320702 8.680993
5.315212 -8.470450 -1.623912
4.634835 8.861055 9.451236
7.959737 -6.053312 -4.024209
1.269788 9.919054 -1.502033
9.702857 -2.419620 -1.321137
0.606311 -9.981602 6.591440
6.864119 -7.272129 -8.590040
9.805963 1.960381 9.459189
-1.936476 9.810712 9.555387
4.491052 -8.934789 4.402257
0.270156 9.996350 -5.384854
-1.984295 9.801152 3.379983
-1.407727 -9.900419 5.412632
6.907621 7.230821 9.326013
3.823173 -9.240311 -5.058390
3.403195 -9.403099 7.556824
6.605339 -7.507962 -8.059743
6.263737 -7.795230 -1.864304
8.810590 -4.730065 -5.592881
5.893924 8.078469 0.525176
5.372406 -8.434290 -5.728109
7.467033 6.651573 1.841549
9.644333 -2.643265 1.523308
2.718992 -9.623257 -9.478556
9.999553 -0.094593 -8.039721
-0.325376 -9.994705 -3.548343
0.186819 -9.998255 -5.742292
-1.044468 9.945305 7.654481
-1.073825 -9.942178 -9.570279
5.310360 -8.473493 -8.402794
6.078145 -7.940791 5.271319
3.295396 -9.441418 -3.065308
5.291582 -8.485232 6.209343
4.449025 8.955790 -0.414585
-1.152351 9.933382 -5.140373
3.033242 9.528874 5.873034
5.946018 8.040203 -1.530000
7.731956 -6.341676 -1.524095
-1.232331 -9.923778 -1.563300
6.795510 -7.336283 1.368539
8.550173 -5.185995 5.917619
7.999130 -6.001160 7.054958
-0.122885 -9.999245 9.690658
9.047395 -4.259653 1.175201
9.494361 -3.139602 -6.203801
7.897679 6.134058 6.371692
8.648320 -5.020614 1.988375
0.604933 9.981686 -7.542933
3.513744 -9.362350 5.608925
0.076945 -9.999704 8.646430
7.437832 6.684210 8.598765
9.839881 1.782342 -6.675019
3.799382 9.250119 6.892233
8.668946 -4.984914 -2.633679
4.632512 -8.862270 2.573980
9.814075 -1.919357 7.938395
1.990979 -9.799796 0.093731
8.287740 -5.595834 -0.548806
1.316396 -9.912976 -6.613302
0.572074 -9.983623 4.470595
3.006599 9.537314 2.925731
4.653363 8.851340 3.770794
-0.326005 -9.994685 7.598561
8.291576 -5.590148 1.578425
7.948252 -6.068384 1.147885
9.923471 -1.234799 7.607831
9.987621 0.497416 4.909366
-1.803186 9.836083 -2.251253
7.862184 6.179487 -5.781725
5.800505 -8.145805 2.881279
2.175990 -9.760382 -1.451315
9.485266 3.166976 0.421970
9.830340 1.834235 -1.732180
9.603927 -2.786501 8.446517
7.184256 -6.956038 -0.921961
0.077066 -9.999703 5.937732
5.201887 -8.540513 7.314313
9.618814 2.734669 3.596083
-0.391107 9.992349 1.733518
8.985328 -4.389063 6.091270
8.563960 -5.163196 5.280851
9.908649 1.348582 3.812149
9.996866 -0.250327 -0.784998
7.545294 -6.562663 1.044780
3.833662 -9.235964 3.568526
3.606054 9.327185 6.065068
2.920995 9.563879 1.601319
9.993649 0.356348 9.514073
9.935241 1.136211 -7.920208
-1.612691 9.869105 5.901174
6.938018 -7.201660 -9.321015
7.322793 -6.810044 3.390125
8.798190 4.753089 0.868759
-0.344079 9.994079 9.757571
2.619458 -9.650826 6.491936
9.691030 2.466565 3.375134
0.378212 9.992845 -5.416811
9.952689 -0.971592 -0.312302
9.986922 -0.511261 -6.798384
7.976176 -6.031634 2.253483
5.406535 8.412454 -0.726756
3.822297 -9.240674 6.528727
-0.384058 -9.992622 1.359002
4.898378 8.718136 -8.927893
4.040324 -9.147447 -4.063109
2.527976 -9.675192 1.723186
-1.125081 9.936508 6.000636
9.635435 -2.675518 -3.389726
5.864078 -8.100160 0.631946
9.147188 -4.040911 -8.510513
2.718721 -9.623334 -2.532601
9.997020 0.244106 -0.990768
2.281457 -9.736270 -1.523704
-1.890794 -9.819618 7.132677
8.662410 4.996264 5.277521
3.485088 -9.373055 -7.663023
4.770406 -8.788813 -4.073876
-0.486117 9.988178 5.804623
5.933717 -8.049286 9.631533
8.449084 5.349110 3.743224
2.625606 9.649155 7.814987
-0.788906 9.968833 -5.213814
9.473909 3.200789 -1.217928
7.327128 6.805380 -4.576251
9.752761 2.209898 -1.469653
9.981781 0.603362 9.398478
5.530184 8.331690 4.499150
8.233054 -5.675986 -4.884680
-0.702745 -9.975277 4.364102
-1.888976 -9.819968 -7.055576
9.792246 -2.027788 -8.264026
9.759547 -2.179734 5.002754
8.901210 4.557243 -6.869687
8.181333 -5.750287 -5.307395
9.942193 -1.073681 9.899412
7.901201 6.129521 1.297805
0.736668 -9.972829 -9.217965
9.999231 0.124049 6.760093
2.366373 9.715981 -5.489512
4.814359 8.764813 2.415430
9.567749 -2.908294 -3.809349
7.497352 6.617379 4.885701
9.455486 3.254808 -3.808685
8.874605 4.608838 9.684230
3.127318 -9.498415 -6.794781
9.331526 -3.594805 -7.518632
9.973046 -0.733732 0.366730
9.929272 1.187247 -5.811871
2.194860 9.756157 1.105045
4.137805 9.103767 -4.314405
7.849300 -6.195845 -0.082451
5.534068 8.329111 -8.721161
9.989665 -0.454528 -0.873003
9.974864 -0.708582 -9.985092
9.848724 1.732811 -7.472007
-1.813579 9.834172 4.141247
6.575788 7.533858 -6.872331
9.203934 3.909935 -5.996339
9.553430 2.954992 -7.677826
6.607684 7.505898 -7.663087
9.258882 3.777976 8.241733
2.414408 9.704156 5.337890
8.606723 -5.091594 2.533516
2.938250 9.558592 -4.171262
2.351267 -9.719647 -7.048727
6.071761 -7.945673 -0.330927
9.835864 1.804380 3.755886
6.641340 -7.476136 -0.864013
9.313530 3.641176 -7.032664
1.409418 9.900179 -7.556185
9.829316 1.839714 -9.101590
6.841631 -7.293291 8.140071
4.398658 8.980635 -7.901789
-1.503324 -9.886355 2.921290
0.374286 9.992993 -6.765923
-1.568055 -9.876295 -7.785728
1.087196 9.940725 5.961006
2.830214 -9.591136 -8.842461
1.458196 -9.893112 -0.100311
9.997626 0.217889 -9.897564
7.254555 6.882690 5.849172
5.680517 -8.229929 -1.673818
4.979685 -8.671951 5.606880
7.452351 6.668018 2.228517
6.348197 7.726603 -1.794026
-0.922809 -9.957330 5.469597
1.044960 -9.945253 3.584757
-0.299982 9.995500 -0.147740
-1.389233 9.903031 8.137775
7.584255 -6.517597 -9.772500
4.451414 -8.954603 4.387051
7.902604 6.127712 9.768171
-1.085324 -9.940929 -8.809844
2.523997 9.676231 4.070135
1.821498 -9.832708 -0.221755
0.053375 9.999858 -0.597707
8.193446 5.733014 0.367831
-0.083434 -9.999652 -8.095055
4.857446 8.741008 7.793927
9.999895 -0.045799 -2.518190
6.821960 -7.311694 5.015789
9.622587 2.721364 -4.018315
2.962759 -9.551024 -6.339563
9.395198 3.424945 1.338598
8.351794 5.499776 -0.747380
9.330445 3.597611 -9.702591
9.993690 0.355189 4.464887
9.725853 2.325464 7.418658
5.184335 -8.551180 -2.875080
1.759849 -9.843929 -2.283485
7.861981 6.179746 1.672510
5.247495 -8.512567 -3.008159
9.199584 3.920159 3.861403
4.786671 -8.779965 -9.287968
-0.581088 -9.983103 6.469571
9.868144 1.618557 6.308046
2.779860 -9.605851 5.395103
8.108956 -5.851908 -2.466343
9.046061 4.262485 2.547141
7.468357 6.650086 -2.263102
9.221534 -3.868243 -9.575451
9.464551 -3.228354 -8.687043
5.217029 8.531272 -5.201731
5.503422 8.349392 9.850362
7.835776 -6.212939 5.141523
9.942653 1.069412 -5.475357
9.273391 3.742220 6.724609
-1.733592 9.848587 0.196722
7.706910 6.372091 -7.168434
9.999986 -0.016646 -7.881494
9.347196 -3.553862 8.570333
9.918280 -1.275819 -8.637388
3.340273 -9.425634 -7.574749
3.801412 9.249285 -4.141964
5.892948 -8.079181 4.922341
4.010907 9.160383 1.174557
4.706931 8.822970 -2.201303
8.037013 5.950330 1.501186
7.758812 6.308790 2.588709
4.404361 -8.977840 -6.144442
8.473810 5.309853 8.823212
-0.867628 9.962290 1.401643
3.366422 -9.416326 -6.227037
-1.249163 -9.921673 -2.252744
9.449750 3.271425 -2.211275
8.159232 -5.781602 1.062043
-0.568933 -9.983803 -3.328161
9.992275 -0.392994 3.017672
9.929184 1.187985 -9.869487
8.762262 -4.819000 7.739791
9.972802 0.737041 0.891930
9.899550 -1.413825 2.553166
6.623969 -7.491531 -0.395770
4.177182 9.085767 4.798578
1.950006 9.808031 -2.367169
7.261603 -6.875255 -7.443067
4.964373 -8.680726 8.629693
6.995348 7.145986 0.307511
-1.019487 9.947897 -7.251870
7.325580 6.807047 -7.055020
5.349225 -8.449012 -1.181477
7.345797 6.785224 7.097124
4.057811 -9.139703 -4.955944
5.296587 8.482108 -3.512404
4.284942 -9.035445 -9.078867
-1.243856 9.922340 -8.848797
6.979341 -7.161620 3.286593
0.222852 -9.997517 -1.705856
9.244998 3.811826 -3.217322
7.038295 -7.103690 2.788736
4.419089 -8.970599 -7.704837
8.208860 5.710920 -5.413658
9.729172 2.311537 0.414354
4.737437 8.806628 -9.117585
-0.339481 9.994236 8.963465
4.309758 -9.023635 9.720206
7.600899 6.498179 -6.673538
-1.688235 -9.856463 6.757613
9.990012 0.446842 -3.685647
2.491361 -9.684685 -1.967876
5.302298 8.478540 -8.988481
-0.259277 9.996638 -1.580720
9.594119 -2.820085 -7.063375
-1.245925 -9.922080 -8.713286
8.113833 -5.845145 -0.763380
-1.222868 -9.924948 -4.638183
9.958535 -0.909711 -4.094782
9.970579 0.766518 1.441197
6.784550 -7.346420 9.058521
9.832072 -1.824927 9.831080
9.549305 -2.968294 2.633011
0.709908 9.974770 2.372150
-1.424669 -9.897996 1.537238
1.029167 -9.946900 -7.562430
0.156040 -9.998783 -8.118887
7.734018 6.339161 0.930154
6.008062 7.993947 8.112418
-0.580810 -9.983119 0.446685
9.174336 -3.978889 9.270950
0.212777 9.997736 -4.022808
8.493112 -5.278924 6.203041
-1.365832 9.906286 -7.943990
7.655921 -6.433263 6.209703
9.802431 -1.977965 4.277556
0.559135 9.984356 7.793592
9.736132 2.282046 5.763829
9.445542 3.283555 3.405729
-0.656569 -9.978423 6.838639
1.589973 -9.872790 2.743790
5.994364 -8.004224 2.873179
-1.579557 -9.874462 0.988902
8.663427 -4.994499 5.624017
0.981850 -9.951682 -0.979111
9.684617 2.491624 2.782401
-0.664355 -9.977907 7.525180
7.236807 -6.901349 3.157530
-0.382084 9.992698 -3.603483
-0.684657 -9.976535 -8.689525
0.605511 9.981651 -5.526026
4.314610 -9.021316 1.874739
8.160375 -5.779990 -0.337765
2.348761 9.720253 4.986857
6.366893 -7.711204 9.948673
2.277630 9.737166 4.885180
9.959053 0.904027 -9.516751
5.401086 8.415953 -2.138595
6.774628 7.355570 3.911982
0.018323 -9.999983 9.729522
7.463315 6.655744 -6.362979
1.696750 -9.855001 0.026900
3.692950 9.293122 1.185942
9.342912 3.565107 -8.617947
7.704165 -6.375409 9.130680
3.399098 9.404580 3.828146
8.578468 -5.139054 5.193320
8.810858 4.729564 -1.828814
3.213159 9.469721 -0.177017
9.814107 1.919195 5.331437
-0.905760 -9.958895 -5.094561
9.125168 4.090393 8.135613
5.292741 8.484509 -9.264744
8.170814 -5.765224 2.834441
9.535247 -3.013148 -1.349603
4.647257 -8.854547 -2.404562
3.926368 9.196936 -7.425202
9.241870 3.819403 4.332083
6.509396 -7.591296 -3.146528
5.819396 -8.132320 -0.976556
3.295424 -9.441408 -4.046185
-1.844829 -9.828357 1.316071
2.672796 -9.636190 -8.416273
5.582052 -8.297030 7.146048
4.102607 -9.119683 8.587162
8.694752 -4.939766 5.627462
2.270889 9.738740 -7.408620
-0.289469 9.995810 -5.813739
9.567034 2.910648 7.477781
8.077995 5.894574 3.567032
2.121589 9.772352 1.211117
9.929235 -1.187560 -2.705815
2.278126 -9.737050 9.663633
-1.659725 -9.861304 8.359219
9.934157 -1.145658 0.733293
9.339197 3.574830 8.413477
-1.411881 -9.899828 -2.304944
8.951770 -4.457109 6.753398
-0.482483 9.988354 -8.811859
9.986514 0.519174 -7.438500
6.641013 7.476426 -3.691630
5.882175 -8.087028 0.443082
-0.607300 9.981542 -3.605173
7.125107 -7.016612 -3.726555
1.044345 -9.945318 -2.463691
9.336890 3.580849 0.561558
1.080728 9.941430 -5.396228
9.968678 -0.790857 -4.736591
1.437225 -9.896180 5.347933
9.302399 3.669519 -5.853529
9.612044 -2.758370 2.093997
9.991922 -0.401872 6.588820
9.395807 3.423274 -5.209033
1.456844 9.893311 -9.706488
9.996543 0.262914 5.016140
4.669183 -8.843005 0.828226
-1.666234 9.860206 7.757563
2.660058 -9.639714 -3.978651
9.670468 2.545987 -6.572545
1.605502 9.870277 2.197887
7.502560 -6.611475 5.050946
-1.801908 -9.836317 1.909106
6.837694 7.296981 -2.117316
9.964618 0.840469 -7.783382
9.540623 -2.996083 8.587213
9.822755 -1.874429 5.478748
8.586382 -5.125821 -8.080295
5.814354 8.135926 7.227375
8.656449 5.006586 -4.466558
9.348248 -3.551093 7.096838
5.813269 8.136701 7.123942
9.973816 0.723182 3.545076
9.971615 0.752924 2.058200
9.869470 1.610452 1.164145
6.291551 -7.772798 -9.458237
9.590120 -2.833654 -3.799198
0.803303 -9.967683 -3.587231
7.179754 6.960685 -5.519465
5.473096 -8.369302 8.758777
1.766328 9.842768 -2.051883
9.999844 -0.055820 -0.369559
6.471579 7.623560 -5.506059
6.507448 7.592965 -4.253313
-1.981696 9.801678 4.441472
5.905920 -8.069703 -6.615346
8.748586 -4.843784 4.471509
9.005488 4.347550 1.140823
-0.696651 9.975704 3.119532
8.040241 -5.945967 2.004502
4.698216 -8.827614 7.468398
9.881069 1.537686 -2.855726
8.042482 -5.942935 -4.471572
1.789512 9.838580 3.763303
5.797597 -8.147875 -4.498550
7.739414 6.332572 -2.223094
6.833545 -7.300867 4.773750
9.632922 -2.684552 8.804609
9.946150 1.036384 8.640958
9.993444 -0.362050 0.932499
7.521230 6.590228 -3.070437
2.586858 -9.659615 -3.069179
2.120727 9.772539 -7.047238
9.887623 1.494959 -0.517565
1.258603 9.920480 -4.657890
8.394580 5.434246 -5.477803
4.732052 -8.809522 1.698344
9.373831 3.483001 4.025028
9.425787 -3.339841 5.720314
0.309263 9.995217 4.104033
-0.034556 9.999940 -8.462901
6.599479 7.513113 -3.924162
-0.908651 9.958632 -2.037343
7.308970 6.824878 0.658698
-0.645054 -9.979174 7.140357
8.102967 -5.860198 9.133501
-1.356939 9.907508 3.357896
0.311238 9.995155 9.079784
8.504512 -5.260539 -4.226024
8.616929 -5.074301 4.757180
6.514627 -7.586806 -1.064844
6.264173 7.794879 7.495152
9.124178 -4.092601 -1.935418
9.709658 2.392185 -5.185081
8.084227 5.886024 6.259200
1.913631 -9.815193 -5.221012
6.138293 -7.894388 2.579382
6.060586 -7.954200 4.720883
9.841911 -1.771097 1.204680
2.188883 9.757499 5.240098
8.555300 5.177532 -1.038124
-1.930114 -9.811965 -9.600759
5.901947 8.072609 6.709816
8.375611 5.463436 5.331351
5.098511 -8.602627 -3.841407
0.217976 9.997624 7.153669
7.599333 6.500011 9.969479
-1.441585 -9.895546 0.623066
7.628659 -6.465567 2.505697
2.728536 -9.620556 3.897767
8.360207 -5.486979 5.723696
3.899436 9.208387 7.519781
3.693255 -9.293001 9.714252
-0.008860 -9.999996 -4.090441
9.723543 -2.335106 -1.355586
2.118314 -9.773062 0.857766
8.938505 -4.483651 2.869173
8.206852 5.713806 2.734420
9.375850 3.477563 4.565109
0.453025 9.989733 8.889031
4.720145 8.815908 3.034675
-0.874974 -9.961647 8.417844
7.790030 -6.270201 -5.609171
4.957296 -8.684769 9.236384
1.168553 9.931490 8.271031
7.578363 6.524448 7.781632
9.261759 -3.770917 7.046403
8.403943 5.419754 -6.420629
9.623801 -2.717066 7.577765
-0.115337 9.999335 -2.535813
0.885548 9.960713 -6.207728
-0.476521 9.988640 -0.685840
0.536854 9.985579 -6.394517
7.646888 6.443998 -8.215053
9.874131 -1.581624 -5.385831
6.914622 7.224127 -8.715785
4.862981 8.737930 -1.790787
2.016141 9.794650 2.728819
9.275181 -3.737781 8.019820
5.404916 -8.413494 4.755084
7.849337 6.195798 -8.434526
8.220245 5.694521 -5.842477
7.954260 -6.060508 -8.234599
0.143490 9.998970 5.070786
5.145205 8.574781 3.432387
-1.475619 9.890528 -3.231385
7.646054 -6.444987 -5.081499
6.692176 -7.430665 8.772557
9.943234 1.064003 -0.264234
9.980934 -0.617222 9.133336
7.571961 -6.531877 8.054956
9.555503 -2.948282 -6.384891
1.411770 -9.899844 4.059178
2.062149 9.785067 1.470305
8.398185 5.428672 -1.784164
-1.022685 -9.947568 -0.576039
-0.943655 -9.955376 -9.963383
7.814088 -6.240194 -0.457812
7.667301 -6.419696 -2.089778
8.385873 -5.447673 -1.319970
2.763881 -9.610461 7.241101
5.087288 8.609268 -2.996148
8.537176 -5.207363 3.249854
-0.201095 9.997978 0.774442
2.941680 -9.557537 2.680673
5.263233 -8.502845 -8.503852
4.566711 -8.896356 8.485802
8.598182 -5.106003 5.980872
6.321890 7.748142 -9.060387
4.705559 8.823702 -9.883591
3.434932 -9.391552 -1.267303
2.384402 -9.711572 -5.544089
5.249518 8.511320 2.628461
2.386288 -9.711109 -6.137935
1.680453 9.857793 -6.757622
4.990498 -8.665733 3.371083
9.762473 2.166590 5.698512
9.566932 -2.910981 -4.293360
9.047375 -4.259696 8.546880
8.787690 4.772474 -1.792944
8.593485 -5.113905 -8.696814
9.998926 0.146587 -5.927179
-0.725118 9.973676 -0.063569
4.012349 -9.159752 -2.445775
8.573606 5.147163 5.549739
2.229764 9.748238 7.078755
7.421971 -6.701817 6.044262
9.991448 -0.413491 1.229747
4.471294 -8.944693 5.503721
3.018214 -9.533645 9.582915
9.934367 -1.143836 -8.179848
-0.862540 9.962732 -4.683329
8.913794 -4.532580 -5.623054
8.738586 -4.861802 4.291382
9.386279 3.449313 4.792932
4.210032 9.070591 -4.337222
9.725773 2.325799 -1.466822
5.910239 8.066540 2.258505
9.926967 1.206365 1.589549
5.481901 8.363537 4.057665
5.889949 -8.081368 -2.553491
9.745907 -2.239932 -5.167695
9.683138 2.497365 6.857244
1.104167 9.938854 -8.268202
3.021651 9.532556 8.653501
-0.294990 9.995648 1.547441
0.736092 9.972872 9.425353
9.432721 -3.320208 0.028361
8.510053 5.251571 4.202879
8.618140 5.072244 0.093016
9.963644 0.851942 5.614968
9.582461 2.859449 -9.467793
9.071733 4.207571 -1.652033
8.760303 4.822560 6.308171
4.435724 -8.962386 7.007833
4.848209 8.746134 9.284811
7.952874 -6.062326 -7.978658
2.275504 9.737663 -2.735992
5.877304 8.090568 4.765642
5.509180 -8.345594 8.971552
7.711275 6.366807 -8.623093
7.702503 6.377417 1.327127
1.468383 9.891605 -0.542624
9.734320 2.289763 4.699770
9.289775 3.701363 0.339083
2.268915 9.739200 -7.970574
4.545417 8.907255 -0.457837
1.397398 -9.901883 2.715971
9.564482 2.919021 -5.779015
0.220220 -9.997575 6.348498
4.935239 8.697322 -9.316508
9.913765 -1.310447 7.008946
-0.471043 9.988900 2.530107
0.483150 9.988322 1.822505
-0.744280 -9.972264 -0.091988
9.793685 -2.020826 6.378969
2.888161 -9.573846 6.628086
8.509142 5.253048 7.244414
5.447336 -8.386092 4.436907
3.140465 9.494076 6.454348
8.003452 -5.995395 4.650054
2.632447 9.647291 0.969014
2.653633 -9.641485 -4.895618
9.386246 -3.449405 4.978464
2.603656 9.655101 -1.028829
9.069493 -4.212398 -3.615152
1.018101 -9.948038 4.532277
8.159443 5.781305 1.197777
6.094149 7.928515 -6.486336
5.733854 8.192858 -9.385392
3.709130 -9.286676 -2.502143
-1.598595 9.871398 5.751473
2.538855 9.672343 7.998065
7.686070 -6.397213 3.918961
-1.428075 9.897505 3.466741
9.255159 -3.787088 7.940054
7.689537 6.393045 -4.240330
3.277916 9.447501 -6.910932
5.027208 -8.644488 -8.427665
9.344447 3.561084 -9.331870
8.621914 -5.065826 8.714197
1.084994 9.940965 -7.762691
7.262866 -6.873920 -2.695035
7.858649 6.183982 7.826822
4.143766 9.101055 -8.037308
-1.840189 -9.829227 -0.882818
9.642458 -2.650096 7.770351
-1.448597 9.894522 1.222417
9.553932 -2.953368 -2.681135
7.521958 -6.589397 6.936095
8.704677 -4.922256 2.976491
9.399405 3.413383 6.573925
-0.240314 -9.997112 -8.779870
6.540784 7.564268 1.365602
9.315211 3.636874 2.580871
-0.236293 -9.997208 9.952231
0.179635 9.998386 4.896845
2.046337 9.788386 4.895668
9.498299 3.127670 3.833508
9.907478 -1.357159 4.639662
9.211484 3.892114 2.584771
9.669732 2.548781 -7.599501
9.212999 3.888528 1.440995
9.649511 2.624297 6.949992
3.789113 9.254330 -4.708312
3.610407 9.325501 -5.920390
7.411223 6.713700 -6.169926
-0.488032 -9.988084 5.386920
2.293128 -9.733528 -4.986300
-0.820954 -9.966245 2.524459
9.342949 3.565010 1.790129
9.997998 0.200102 5.526657
7.869063 -6.170725 3.214811
2.848413 9.585747 -2.814514
3.932333 -9.194387 6.833053
9.313171 -3.642094 -1.193478
-0.439344 -9.990344 9.620561
7.709698 -6.368717 -1.618425
5.226478 8.525487 3.200561
9.964755 -0.838844 -5.366140
2.971120 9.548426 9.416076
9.156412 -4.019964 -1.744776
9.702293 -2.421883 -2.704234
3.684318 9.296548 -4.126421
7.128857 -7.012803 -4.833378
6.026205 7.980279 -0.052119
7.371749 6.757020 6.019456
-1.577959 9.874718 6.168492
0.326249 9.994677 8.107390
5.969288 8.022942 4.036460
8.468814 5.317818 -5.044950
6.540878 7.564186 -5.178953
9.420361 3.355114 3.456462
9.336627 -3.581536 2.345894
6.887807 -7.249698 4.369241
9.823614 -1.869923 6.730405
-0.037599 9.999929 -7.926911
8.696056 4.937470 6.282055
9.994528 0.330771 -8.449339
7.756065 -6.312167 2.247308
9.816218 1.908367 2.551544
9.399791 -3.412321 4.219162
3.218190 -9.468012 -2.381862
-1.224398 -9.924759 8.314790
9.798175 -1.998943 3.373176
5.318068 -8.468657 -7.648797
9.029425 4.297613 1.550261
9.527336 3.038070 -0.787366
8.201710 -5.721184 -7.161317
5.256105 8.507253 -8.840755
8.795790 4.757529 5.788526
-1.555403 -9.878295 -2.938870
9.087797 -4.172762 0.521760
7.078507 7.063620 -5.656306
4.301865 9.027400 -0.480521
0.635248 -9.979803 -9.246526
9.414822 3.370628 -3.922586
7.388315 -6.738902 -5.487708
9.862077 1.655124 8.445132
9.532392 -3.022170 -3.037042
7.746604 -6.323775 4.629214
-0.936874 -9.956017 7.102794
9.162573 4.005904 4.732573
9.110451 -4.123068 7.135670
7.193082 6.946911 7.811108
9.960203 0.891268 -4.441959
8.985608 -4.388490 4.195177
9.807652 1.951914 9.467260
9.989308 0.462301 5.146549
3.646262 -9.311540 -4.732712
-0.107777 9.999419 -1.504870
2.664431 9.638506 -8.425127
9.699574 2.432748 7.023417
6.823779 7.309996 -0.143920
9.415688 -3.368207 -1.823396
6.542964 -7.562382 8.950774
7.710742 6.367453 -0.467402
1.937261 9.810556 6.395215
-0.250405 9.996864 -2.235881
1.192270 -9.928670 -9.748458
8.284672 5.600376 -7.668008
8.952101 4.456442 -2.880880
9.373520 3.483837 4.227086
2.083818 9.780476 -3.019930
9.995961 0.284175 4.844644
2.408144 -9.705712 3.781882
9.536414 3.009454 -2.619108
2.553170 -9.668574 -4.674901
3.999229 9.165488 1.235378
6.646194 -7.471821 6.795604
2.704565 -9.627322 -6.125071
-1.201174 -9.927597 4.599810
9.952866 -0.969772 -9.071806
6.235340 -7.817962 -7.935100
-0.282942 -9.995996 3.296518
-0.853339 -9.963524 -9.379950
9.866287 1.629843 -6.238488
8.187537 5.741449 -8.559455
-1.548435 -9.879390 9.976461
9.318580 -3.628233 8.202423
9.975311 0.702259 -0.278024
0.567442 -9.983888 3.683211
3.322702 9.431843 -4.436179
9.966368 -0.819461 8.525829
8.711729 4.909764 -4.710069
7.343819 6.787365 -4.576956
5.437937 -8.392189 -1.715058
-1.118987 -9.937196 0.456287
-1.258890 -9.920443 8.356206
8.060325 -5.918713 6.450836
6.100051 7.923975 1.924274
5.292237 -8.484823 -6.869541
-0.298495 9.995544 9.816010
3.693644 -9.292846 -0.885762
9.848787 1.732453 5.687395
5.823234 8.129572 -5.708523
-0.996350 -9.950241 -7.948125
9.320485 -3.623336 -4.453413
0.508262 -9.987075 -2.190873
8.008975 5.988014 0.396783
0.585147 -9.982865 4.458214
8.979113 -4.401764 9.232443
6.379720 -7.700595 -8.650158
7.939378 6.079989 2.574781
-0.398036 -9.992075 -7.844097
5.988446 -8.008653 -3.148133
2.961879 9.551297 -8.686390
9.141632 -4.053464 -0.988633
9.149760 4.035083 5.156381
9.317227 -3.631705 -4.628481
0.182747 -9.998330 7.517946
9.989477 -0.458647 0.691339
9.863242 -1.648171 -2.602481
9.526893 3.039459 4.951701
8.374356 5.465361 -3.584770
-0.265480 -9.996475 9.772641
9.845452 1.751305 -1.713936
8.785603 -4.776314 -5.832290
-1.937315 9.810546 -0.439407
7.270459 6.865888 -5.511330
2.152509 9.765588 -1.251849
4.845250 -8.747774 4.069646
6.471727 -7.623434 0.337771
-0.284379 9.995956 -0.365589
9.941709 1.078154 -5.787203
9.496579 -3.132888 9.343785
9.006069 4.346346 -6.566519
7.340234 -6.791242 -3.666317
1.238058 9.923065 -1.248504
9.405430 3.396746 -4.531845
8.780022 -4.786566 1.817126
0.237971 -9.997168 -4.147510
6.177244 7.863946 -5.899011
3.322393 -9.431951 3.439098
7.534095 -6.575516 6.058454
-0.814297 9.966791 -9.348573
9.972669 -0.738826 1.846060
1.048100 9.944923 -9.830665
4.193078 9.078441 -4.526298
8.020918 5.972008 -5.245966
7.813631 -6.240766 -9.826612
9.103541 -4.138301 5.107975
9.996217 -0.275021 -4.463597
8.558241 -5.172669 5.836325
7.192411 6.947606 -8.785359
9.951272 0.985997 0.812297
3.378070 -9.412154 4.799607
2.300282 9.731840 -7.007325
3.291466 -9.442788 -3.505280
0.380999 9.992739 9.477545
9.999857 0.053449 -5.090516
8.939760 4.481148 -2.781063
9.905077 1.374572 -6.639757
8.573955 5.146581 9.364030
0.605986 9.981622 4.806203
9.406035 3.395072 3.221046
-1.534811 -9.881516 -4.915681
7.930414 -6.091678 -4.282590
1.609965 -9.869550 -1.728464
0.409138 9.991627 1.513636
0.381860 9.992706 -6.479608
1.839860 9.829289 0.555599
8.807323 4.736144 -5.536299
6.913701 7.225007 7.761064
4.679548 -8.837524 -7.318566
8.240232 -5.665560 -6.098702
2.748073 -9.614993 2.847506
5.180656 -8.553409 4.481033
7.130088 7.011550 -9.975573
6.457629 -7.635380 -5.222558
7.193441 -6.946540 7.671387
9.718361 -2.356577 5.571541
8.474455 -5.308824 0.717224
5.914897 8.063125 -4.292439
7.310773 -6.822946 -7.937960
7.053034 7.089056 7.853477
7.438019 -6.684002 9.415227
9.132426 4.074161 -6.370967
8.919896 4.520560 -2.429761
9.999591 -0.090465 -7.827209
-1.487816 -9.888701 -0.406665
8.282037 -5.604272 8.666820
2.557751 -9.667363 -2.177052
0.446149 -9.990043 6.035707
6.244572 -7.810590 8.809245
9.755706 -2.196862 -5.157608
3.069353 9.517304 -8.985792
-0.810174 9.967127 -2.492156
9.941362 -1.081350 -8.073950
9.985326 -0.541536 -4.746332
9.269690 3.751379 3.806121
5.316360 -8.469730 -5.305139
8.683343 4.959794 9.995808
8.970912 -4.418454 3.239842
7.398065 -6.728197 -1.778069
9.875370 1.573873 0.216911
1.512022 -9.885029 -3.025115
5.907463 -8.068574 -2.005128
9.003697 4.351258 -0.277595
9.863160 -1.648658 -2.277985
7.041418 -7.100593 -7.075413
9.963053 -0.858822 -6.854210
7.315077 6.818332 6.708256
9.222490 3.865964 0.036029
8.869973 -4.617745 -2.897020
6.963659 7.176870 -4.332085
8.506330 5.257599 -4.509476
-1.307718 9.914125 1.739935
0.327388 -9.994639 4.106750
9.068266 -4.215038 6.215790
4.541372 8.909318 -3.874596
6.188096 -7.855410 -3.203789
0.888529 -9.960448 -0.866387
5.922066 -8.057862 7.405330
6.195874 7.849277 0.962725
9.590881 -2.831079 -0.701878
8.386013 -5.447457 6.138329
1.177060 -9.930485 -6.968849
8.955220 4.450173 2.380532
9.765038 -2.155001 -8.122143
9.611955 2.758681 8.192084
8.618812 -5.071102 -3.084943
7.207727 6.931715 -7.465772
-0.842927 -9.964410 5.546998
8.572331 -5.149285 7.447936
7.562691 6.542607 2.141039
4.386266 -8.986694 -3.808668
0.490361 -9.987970 9.532581
9.389067 -3.441718 -8.030148
2.862788 -9.581464 2.471168
2.872593 9.578528 5.842808
1.763591 -9.843259 -6.999749
8.924911 4.510650 4.881588
6.503452 7.596388 3.188707
0.623609 -9.980537 -7.232273
0.677016 -9.977056 -8.394775
1.312975 9.913430 -2.123582
9.765850 2.151318 -8.255779
9.854136 -1.701763 5.527489
9.595402 -2.815718 8.736291
3.807852 -9.246635 -0.898229
9.786849 2.053675 7.432238
4.283214 -9.036264 3.704665
7.477750 6.639522 -1.098657
9.112336 4.118900 0.346425
7.129282 7.012370 8.117872
0.482543 9.988351 8.472663
4.433402 -8.963534 6.144249
4.394871 8.982489 -3.219004
6.154544 -7.881725 0.362275
7.015369 7.126331 -7.772609
9.545842 2.979412 -3.463339
5.563036 -8.309791 -3.043709
8.677529 4.969959 -8.857133
1.835409 -9.830121 -3.338175
7.246330 -6.891350 -9.316628
9.714325 -2.373161 -3.709193
7.523176 -6.588006 -2.449444
8.202505 5.720045 -5.849743
6.786142 7.344949 6.279873
2.382679 9.711995 7.369332
5.289646 8.486439 7.860128
6.473438 -7.621981 7.853522
6.326124 7.744685 1.663932
5.901492 -8.072942 -7.017787
9.698361 -2.437581 -0.768658
9.582287 -2.860032 2.153169
1.830999 -9.830943 -7.868666
9.901037 1.403376 -8.056680
6.507790 7.592672 0.103382
9.506883 -3.101479 7.958752
1.709393 -9.852816 1.228469
6.384322 -7.696780 -9.457841
2.915465 9.565566 1.312242
2.904720 -9.568835 8.946817
8.307440 -5.566547 -7.762016
-0.103598 9.999463 7.401902
4.804365 -8.770295 5.594175
5.783172 -8.158120 4.583196
9.999326 -0.116109 -7.753732
0.391679 9.992326 -9.302326
-0.377846 9.992859 -8.994988
1.960986 -9.805842 -5.453268
9.544929 -2.982336 3.982855
8.432766 -5.374798 2.659544
-1.279292 -9.917833 -5.502985
0.431743 9.990676 4.037916
-1.945845 9.808858 -4.210948
2.022029 9.793437 -6.184829
9.711731 2.383755 2.672628
9.986389 -0.521570 4.486446
6.155364 7.881085 7.463000
3.056656 -9.521389 5.496387
9.317685 -3.630530 -4.267034
7.128719 -7.012943 5.884767
-1.958104 -9.806418 -1.196418
6.324724 7.745829 -1.929643
9.823738 -1.869271 -7.618066
9.884747 -1.513863 -4.664976
-1.023398 -9.947495 2.202372
5.921064 8.058598 -6.279219
5.577969 8.299775 -4.230524
9.837741 -1.794113 4.989402
8.801215 4.747485 -8.701555
8.805278 -4.739945 -0.286823
-1.522778 -9.883377 7.145353
-1.118885 9.937208 2.906098
-1.504102 9.886237 1.958968
9.923005 1.238539 -9.499161
-1.321702 9.912270 -3.710097
2.427514 9.700885 6.429522
8.399277 5.426984 0.740110
8.862259 -4.632534 5.810677
6.507372 7.593030 -0.513890
0.220753 -9.997563 9.341379
9.203945 3.909911 -3.738083
1.075145 -9.942035 -5.464074
9.859841 1.668395 -2.642219
9.884397 -1.516146 -6.933207
9.499073 3.125319 5.800875
3.002302 -9.538668 4.344382
-0.898676 -9.959537 -4.358566
9.984702 -0.552930 4.745764
3.367012 -9.416115 -9.098626
9.814267 1.918373 -8.443455
8.825774 4.701671 2.891407
9.561894 -2.927488 -7.408103
4.033169 9.150604 5.191702
2.418346 -9.703175 0.381777
3.119580 9.500959 4.992380
2.286772 -9.735023 5.626552
0.161222 9.998700 -0.861635
9.798128 1.999170 -4.170456
9.566030 2.913944 -5.334160
9.730307 -2.306755 2.319231
7.096278 7.045767 7.351835
6.673563 -7.447386 -6.244322
1.943348 9.809353 -8.760455
3.922840 9.198441 -9.217629
9.322988 -3.616890 2.478285
9.591039 -2.830544 2.086400
4.964779 8.680493 -1.567990
9.881407 1.535510 -1.131567
6.610380 -7.503524 -2.591364
-0.209993 -9.997795 -6.753704
0.171342 -9.998532 2.635458
3.864141 9.223254 -5.604498
-0.987595 9.951113 0.969242
0.670827 -9.977474 -6.868457
0.215198 -9.997684 3.093745
0.582694 9.983009 -1.498351
-1.635925 9.865280 4.803187
3.137207 9.495153 5.282802
5.668200 -8.238417 -8.380418
0.246929 -9.996951 6.705233
2.499243 9.682654 1.822103
7.383893 6.743747 -9.125103
8.830181 4.693390 -4.401743
9.873905 1.583035 8.146644
-1.686260 9.856801 6.324243
2.245132 -9.744710 5.488767
9.296320 -3.684893 -3.497171
-1.698353 9.854725 6.289831
4.430347 -8.965044 8.688725
6.086291 -7.934548 5.703604
7.692342 -6.389669 -2.565854
8.731924 -4.873757 -9.484289
7.461987 6.657233 -5.967748
0.091683 -9.999580 -1.082101
9.984890 -0.549514 1.352156
9.163745 4.003222 -4.336863
9.999890 0.047000 -1.141298
2.817028 9.595017 -4.788814
7.835450 6.213351 -3.504269
7.600649 -6.498472 -1.078696
8.643203 -5.029418 6.620965
9.942842 -1.067662 2.542854
3.133146 -9.496494 2.637773
5.313078 8.471788 8.091697
6.045948 7.965332 -3.385809
-0.034054 9.999942 4.699005
6.425570 7.662379 3.255163
0.556180 -9.984521 -4.910081
2.111969 9.774435 -9.375036
4.409274 -8.975428 7.736299
1.011815 -9.948680 -3.094898
0.894504 9.959913 -8.955149
9.997691 0.214892 -0.540115
9.123350 -4.094445 -9.785543
9.991665 -0.408195 9.159319
9.730851 2.304463 4.443835
5.840277 8.117337 -9.980505
7.091078 -7.051001 6.249068
6.341753 7.731893 5.484547
4.428966 -8.965727 -1.873284
-1.681411 -9.857629 -5.417414
-1.089189 -9.940506 1.706828
8.946402 4.467873 -4.110150
6.312999 7.755388 -6.571216
8.029711 -5.960179 1.009253
6.060384 -7.954354 2.324595
0.729764 -9.973337 -2.171255
9.957104 -0.925242 6.507070
9.592994 -2.823909 4.562126
9.979692 0.636982 -3.903807
9.876373 1.567566 3.793798
9.694534 2.452755 9.160582
6.006626 -7.995026 2.469400
6.848718 7.286636 0.338146
-1.925695 9.812833 -3.741221
7.448294 6.672549 -0.168102
0.964711 9.953358 2.988283
