3.3589836437121168 -9.418982369729465 2.6277251733165734
-9.89476373509566 1.4469452742366593 6.495204505073456
-6.3328173990332 -7.739213383187105 4.678193113385261
9.693951290599774 2.4550577132684657 -1.3425753358861883
5.295081200401142 -8.483048690250364 2.598852686418523
9.237312141361864 3.8304130851709344 -6.222038607742926
-1.6650858399531643 9.860400049977052 2.849715420915114
0.4252354864274787 9.990954648134622 -5.533283361312533
-3.006112064547997 9.537467706649338 -4.6443237213055655
-9.642784226674134 2.6489077669493377 8.224055151375126
0.8305716764694577 9.965447841930974 2.254386325778393
-9.358159009534647 -3.524891480920444 0.1453063225653377
9.511183938022842 3.088264900732496 -6.688640297686423
-1.4611668125621073 9.892673629806408 -1.1733473839873092
-9.511990028594106 3.0857812132305016 -1.8681363108622158
4.0002051275603305 9.165061862172019 4.202146632005837
-6.506821159773217 7.593502379977735 2.363672063051741
-3.690531964390022 9.294082731491878 1.9048600287454214
-6.481918197121347 7.61477094112667 8.144549252531547
9.635895552640898 2.6738580550574036 -8.003453749994659
4.363990787016455 -8.997532128913766 3.329641378328942
-6.232758479904435 -7.820020571020216 9.275408391723218
1.1351426207314752 9.935363668764163 0.466987868831767
4.741086151774992 -8.80466365634982 -7.7505032897097355
3.9448990933772405 9.189002728428772 -2.2938324301634676
-2.7153429078423956 -9.624287656384237 0.4204853585342221
9.001788520745023 -4.355204177507998 6.946390588489944
4.074938874443722 -9.132079345337914 5.072995380934621
9.710651040036526 -2.388149153348162 -0.8657500111189655
2.851357707254794 9.584871372390904 2.9559356667542467
9.948185995117589 -1.0166589430808535 -3.6640684623698743
9.867536909883865 1.6222562473541557 -9.027142626691633
-4.590088580939309 -8.884316902223297 -9.821454563701176
9.045123559396117 4.26447415225574 7.947771743059402
-9.961260745942129 -0.8793658802526156 9.137234304087158
-7.265508300636539 6.871127209809287 5.287442629088307
-5.065660197933692 -8.622011758230814 6.340214110428921
2.647111545004381 -9.643277475438758 5.110336033703982
1.6804228857479875 9.857797874021074 4.988960199069165
-8.938528842828235 4.4836036985808345 -2.5722721077441335
9.881462632320455 1.5351534926692243 -5.2730511639246025
6.269859187033258 7.7903058845448845 -7.289347924574656
-9.926132006483181 1.2132202561242376 8.822760054036255
-6.413072999716775 7.6728413707246474 6.249980830549319
-0.43765797842739956 9.99041818413618 6.156437235805093
8.619643720242854 5.069688564012383 -2.4037674212110893
-8.470881995879996 5.314523328754529 6.055328953741615
-9.415283393018477 -3.3693380105223176 6.790143497083413
-8.391292675891627 5.439320474795317 -8.660615471660362
-5.199584901573657 8.541915291743841 6.830512957195687
-9.299335696994504 3.677275566857037 5.123281777924989
2.519034791791837 -9.677523635607523 -2.8480583588991326
-0.7966652333141157 -9.96821571325724 -2.1777756464693754
9.131603912181326 4.076004169653744 9.080742820837251
9.999217404350546 0.1251051578998088 -8.873709907862324
-8.047649181469582 5.935936543797615 8.312164172406426
-1.5406973507516009 9.880599762837628 2.7304051385921824
-3.773413702022533 -9.260742358655087 -9.205950504653376
-6.506467051533792 -7.593805798629905 -5.188985464716529
3.77669556790047 -9.259404440211096 2.4284882579542355
-8.735448176768946 4.867437226198618 6.952444930031007
-9.87869814773848 -1.552843490461406 -6.193657218088379
-4.65249037182013 -8.851798311084647 -4.900418803613611
1.3419438487367361 9.909550277728936 -5.608582858980668
9.331794073063483 3.5941089824791423 5.468470307848385
9.999991138409158 0.013312841106879606 -9.327227054590843
-0.7329923570254003 9.973099929537574 4.991236399571868
9.132677196462287 -4.073598805137507 -9.003800714607715
-9.901668017349794 1.3989176080785484 -6.743063341233768
2.593252260743937 -9.657900533353326 2.6129038049509887
-1.5761127666446315 9.875012331476848 3.0883975848516148
-6.0122511395509814 -7.990796971201805 3.6863766660415784
-6.373688905741163 7.705588214590241 9.429257863900869
-9.937595879788091 -1.1154318132538483 -7.09573284082476
0.7656233046493522 9.970647970687653 6.369362823012594
-8.863926844413776 4.629341302699644 -5.538812755725308
-6.15053060604542 -7.884857212663939 -1.5596785334808487
7.783764519935724 -6.277978169617172 -8.09126003417704
-9.251265607619004 -3.796588555174998 -4.698530508847698
6.016428415430233 -7.987652291005389 -5.334472058003374
-9.999674890657 0.08063548328074471 -6.364116860391493
-9.961575774223926 0.8757899830410307 -6.768747370198391
-0.8779177801167964 9.961388476078763 -2.546680545001525
-4.28288182053043 9.036422041459216 4.178467862456728
9.968924844668676 -0.787741989072318 7.5244725932339875
-7.754490949904217 6.314100894652666 -7.346689799009141
-4.662933383286337 -8.846301614970734 7.847002048461089
-4.715429593567432 -8.81843091190879 -3.198818309717179
9.629567386703435 -2.696559278958569 -2.316857328179971
3.2893576114825245 -9.443522992177336 2.311453426423146
-1.1472688794513095 -9.933970712572215 7.493991522437682
9.592603353647203 -2.825236432512584 -8.513305833022116
-6.156894802232462 7.879888729813568 0.31123120031625007
9.642976795920381 2.6482066598626868 0.531520604953144
-7.54013109548687 -6.568593689890704 -0.8824623874953996
-1.5177285102182227 9.88415399360364 -2.8895292467306355
-3.9907801844526207 9.16916972900929 4.837866047818196
0.4855249913833057 9.988206319592233 3.33441313944844
-9.99734484080707 -0.2304259837523602 3.578261984509334
2.3603675312349597 9.717441284489029 -4.800513141534834
-8.404194642384203 5.4193645764905565 4.929321760756093
-3.956054703086197 9.184205528307256 5.137023646348132
4.452186887881647 8.954218665823095 -0.18673361030852043
-3.210368006045994 9.470667202777017 8.02807823030928
9.9216406242167 -1.2494187944371755 -6.948352348697333
-7.9261676296714025 -6.0972015471320296 -6.676553725815692
-9.036058813101898 4.283648109516412 3.826978619696293
-5.9590285807696155 -8.030565258658376 8.893760664882937
9.842428576466212 1.7682193634165753 -9.801606704336569
9.605106527165535 -2.7824321378610573 6.722932438516679
5.411225932126726 8.409437193503454 0.0793100423695634
-7.632872994812095 6.460592066139777 5.354052153553393
9.796644676979863 -2.006427938651705 4.372173747910125
-9.616305681946729 2.7434768144380346 0.6787965730426961
1.284120717885364 9.917208981457312 -2.3626087154804765
2.3969779560848417 -9.708475507413269 -9.427382672306896
4.529359683569875 8.915430491953364 -4.370680898605701
-8.732621386736065 -4.872506923126934 7.703474394146145
9.85805441449115 -1.6789172585126224 -8.526003868080478
-9.927777049771489 1.19968447936552 6.511988517749732
-2.973197707007957 -9.547779605491668 4.197517641172375
-1.3145475734427188 -9.913221710279451 -4.883522377995455
-4.365172672979338 8.996958793674361 8.897701434174468
4.67521623875374 8.839816351084073 3.5528338505268096
-4.470591512435428 -8.94504396461752 -8.3455690608786
-8.37716012348083 5.461061093373946 6.712503683774308
-9.825999991988777 1.8573433062943834 -7.317801392565089
-4.105459611160008 -9.118399058010892 -2.5571462926194144
-3.296086124884522 9.441176635215747 8.56133898329049
0.9125960006512562 9.958271363022567 -1.7687415523459098
0.23021752998768413 -9.997349643224766 2.3630437852065977
-2.615191270621397 9.651982937099797 -3.2090765476291754
-6.4129155748115165 7.6729729460190255 -2.386134557958142
-9.569547002048237 2.902373197159455 -9.873697179153682
-9.153669272356941 4.026206508899952 5.025192630531068
9.752938000118165 -2.2091175536514744 3.6839940255430985
-1.5167449099177575 9.884304976994517 6.617831932710509
6.434760416535267 7.654662525663092 0.9768592464601866
-9.245191635346453 3.811355615226686 7.978930546493363
8.761249540742664 -4.820840848320596 -7.696705966996509
-4.543379971105529 8.908293800619573 4.905195193455587
-7.896633222539729 -6.1354041226867695 3.891397897349119
0.8945652506964599 -9.959907279299662 -8.195793491756163
-9.878811207592515 1.5521240687343638 -9.066413377426525
3.945042261872358 9.188941263934655 2.3052927305991346
0.42998133797431165 9.990751525735881 0.7562810457156708
3.0933173333921955 -9.50954193822896 5.082717223551914
-7.360987505650568 -6.7687416069500115 -2.410656568717819
8.25454093366121 -5.644692549157265 2.184812706703754
8.889442368558594 4.580154405265763 -9.432162393165989
-4.522081824986726 -8.919124170462295 -1.2403266432788858
-4.320751481157146 9.0183760532636 0.4963172664002684
-6.330525782914501 7.7410879927730285 4.5800482335273625
-9.865589253478177 1.6340589590513326 0.5074300487316368
8.78964218737433 -4.768877249199165 9.197638867452696
1.9406394757945555 -9.809888807982883 -5.9827891063281236
2.582016641008659 -9.660910415978112 4.45502195792783
7.540966625815315 -6.56763445605338 -0.36361618073619795
-4.511778252233069 -8.92434070408995 9.947198257594444
7.427634833894176 6.695538871093336 3.2799539806868836
-8.834576459946781 4.685110326700343 7.671277522859718
-8.696092960192875 4.93740490821686 -6.415525866538603
7.213353008855556 6.925860117677406 -1.7655376654060149
0.566352005377517 -9.983949389194883 -4.099275907834619
-9.555498331675524 -2.9482963950977332 -9.45314713367596
-7.895536851618883 6.136814957673743 3.5972354738831136
0.9728510624333443 -9.952565539112129 3.4262863024108157
1.0317034555445495 -9.946637018601686 0.8924702018359838
-5.3097156636794915 -8.473896363000708 0.17412096785887954
8.63336192314366 -5.046291896433777 0.15698414574435482
-5.804110757094 8.143236354139901 -3.1647521061669455
7.5332636586424435 -6.57646855457981 1.0136428930028316
-6.324617720958305 7.74591574210178 -3.4500007063728466
9.054505977438495 4.244516639681197 -0.45761696271957675
1.7936185252391637 9.837831701443102 0.9578508403064117
-3.8850462149691896 9.214467749553068 -6.7682946932666965
1.1791870382827616 -9.930232521383672 8.176429089074691
4.901601649745214 -8.716323839051357 2.964097216746014
4.332527933824968 -9.012724432857489 -6.174005571880004
-8.424291383498032 5.388071518263359 7.498558634817471
9.741420380281946 2.2593647281099956 -0.254232313244831
1.9059300532492562 9.81669143001456 -7.297291897913951
8.437196739119695 5.367840458265128 -4.156195038573824
-2.957990759870084 -9.552501801335774 5.427910362239414
-8.330024824286662 -5.532692511496366 4.143750649772356
1.2066772912970178 -9.926929531061862 -7.872925157162349
5.4902957855165955 -8.358029204755072 -1.9228135114780986
1.4306870214889402 -9.897127595749339 -0.08726729825505863
9.989187542061565 0.46490025760591 1.8085001258521203
5.468393795098347 8.372375367942475 -1.7975340368163089
0.5537363047841007 -9.984657034909313 -7.675259959447485
-9.672165849082425 2.539529048434695 6.664695162859726
2.498140578968649 9.682938275529292 -7.6162677984530625
-7.4079425209011855 -6.7173199720591095 -2.7453607845343964
-6.404077378454906 -7.680351094237955 -7.822845555230266
-1.7573864769342946 -9.844368581614997 2.8631527157895054
9.706998091405376 -2.4029540264957983 -4.521284774927281
4.740276765907127 8.80509944194846 -1.8567861154476049
4.082846825994416 -9.12854653246985 -8.305406720761038
9.020025276919961 -4.317307494692148 -1.4399444375187258
-8.674895458464558 -4.9745541292372115 -5.191717463774054
1.8868679693985932 9.820373173462281 -0.5884271788347064
-9.881487774297742 -1.534991650271843 3.542735128335286
7.210458296350378 6.928873729300599 6.07186062140369
-9.528551302474519 3.03425609929537 -8.81653061137081
-5.478006872640806 8.36608873388874 6.300624923549652
-9.746901233284476 -2.2356020103313505 -3.9325250975683286
-6.23122247256688 -7.821244561920917 2.644318367477595
9.177584881362126 -3.9713896491522145 1.2580406579954566
9.678663304514961 2.514652389066038 4.831044800401232
-6.683266586054196 -7.4386791663393765 2.703531032219871
-9.754229938734046 2.2034060684096364 6.745409413580891
6.777477474523207 -7.352944925832814 -3.683364286129356
-9.71813316920824 -2.3575172757658853 -5.207775642713064
1.5311296321032333 9.882086927855644 -1.3321578399835676
6.911998612879086 -7.226636505010999 2.1222108371910036
3.797267759436676 -9.250986842664018 -6.858926416211477
7.732357022704351 6.341187181706176 -3.6651542204684473
-2.7364316896542555 9.618312825431286 -4.855768163694984
-5.149954795070752 8.571928931619054 1.6860212673920287
-4.679247404900782 -8.837683164932384 6.298149683530767
-9.194962690762008 -3.9309872952598934 -6.92468899905526
-2.2068635740525715 9.753448270510276 6.896819052109503
9.865585417378163 -1.6340821192386021 7.626498732261865
2.506737135413983 9.680716344048951 3.230310141687786
-2.771210045539892 9.608350268568419 -8.901833706877579
-9.483779922804821 -3.1714221377489595 -9.335552224483108
-7.337119612492332 6.794606375058114 -3.833661081165567
1.9384298129954356 -9.81032567553649 6.3255801007082155
4.554440769572723 8.902643948651086 1.851670120035891
-9.924597215427386 1.2257120834563713 6.929909666891486
-1.1306917572936865 -9.935871182236015 -1.2945350787851861
-4.703090135999772 8.825018026761285 -0.1181561824831796
-9.362667824211561 -3.5128978370390374 -8.050587568146558
3.449421067889986 9.386239624918847 5.402675531827423
1.148828018697688 -9.933790524440061 9.383321389128241
0.2207099546539558 -9.99756405910543 8.27106728908159
-9.829221760127465 -1.8402172671281867 -9.167742147197258
9.063931597297483 -4.224351311090532 4.733914317779519
-2.952677832186371 9.554145363103661 8.381409919490398
4.543507376501052 -8.908228820572614 6.612084324527398
6.127326961449908 -7.902902271158934 6.28159200575411
-5.1266949754172835 -8.58586038956092 -0.1571331533125413
0.6451017289596341 9.9791704945498 0.5764133817338912
9.903413070671927 -1.3865098454913434 0.05618304507213345
-9.254075473353208 3.7897344410238833 -1.2587969579050533
-6.299216908222175 -7.766586530977935 5.187432959010238
-5.708197161692214 -8.210754238390585 -5.894724253619983
-9.948901574510158 1.0096323393737383 -3.2529900777075476
-9.127794461468163 -4.084527912646837 -2.005940266603856
4.049841745524859 9.143236945207324 1.7828525119450163
9.690136860250927 -2.470070369363254 6.702997476959588
3.002462990399094 -9.538617090086158 -7.864940028966085
-8.045636559837142 -5.938664188772755 0.42293277366866633
-4.254355506812785 9.04988724911265 -0.23352516243066113
-9.94512752152424 1.0461541858737329 1.3718745276036053
4.769610221303856 8.789244469056129 -3.1695055514070747
-0.755936324877286 -9.971387078673208 -9.75984143639997
-1.2672740411993084 -9.919375812242542 7.54315667111948
9.89573497084703 -1.4402879527216443 2.4223224544270785
-1.1399616717141527 9.9348118948988 7.520768220846893
9.800404815863391 -1.9879802426587818 4.553849720777205
7.069384228354787 7.07275099461932 7.499973758885574
8.365684576986698 -5.478624057039037 4.554163186928399
9.643165518437847 2.647519364237272 -7.576075023447364
-6.138484541607449 -7.894238882403192 -5.825683465898647
1.1678471926241698 9.931572530806985 9.927719897921897
-7.508145926377091 -6.605130184048388 -7.646168754458095
9.653313923716423 2.6102739875696237 4.324704349203612
3.3735775124587364 9.413765174861371 1.3462075599335162
8.81399201999811 4.723721485376716 -9.987217739424153
-9.147828052620886 -4.039460597614781 8.323614417437884
-3.5624905974353767 9.343910356118819 -3.1348162966357123
-8.557410139119533 -5.1740440383605355 -4.838781657469311
-9.551555825579518 -2.961043956248873 3.4899284219988242
-0.8814270422633932 9.961078574590545 -8.506867268401717
-9.279028469049468 3.728220845198078 8.668655562544142
-8.356211194205525 5.493062395224934 7.065754432246589
6.662086889953327 7.457653670606595 -6.40290178996702
-3.0304364948925167 9.529766767892253 -3.0332727877198717
-9.196405868683575 -3.927609845496658 -0.9504952880250723
-8.056813724945197 5.923491588711399 -4.73787863245448
-4.9912168850770495 -8.665319036603428 8.141858856665984
8.762123314843514 4.819252537009832 7.574647416810421
-8.163820244968718 -5.775122423623492 0.9050746481789833
-6.999399356006251 -7.142017127894562 2.3985221142327013
-5.228830428217629 -8.524044365965338 1.5046856915840419
7.808036877758253 -6.247764409416153 5.243892882862999
-8.970011920177699 -4.420281229952455 -6.2298619696023945
-6.86354875476054 7.272667907379317 -5.997747176093182
5.416117076486795 -8.406287873597249 -7.212434136707932
-9.536352448424084 -3.009648148776858 9.262810606824807
-2.840319171436054 9.588148257321265 -9.714695089821015
-9.678472531414013 -2.51538654259429 2.9662740811610995
2.1329327550512294 -9.769882182627873 3.4847927881875034
3.181774368929598 9.480311802109815 8.756830018378157
-4.012147752122167 -9.159840086766856 -8.234027072347999
5.5270294803791575 8.333783361896307 -7.794108921114238
3.6502308111471766 -9.30998469522651 3.329627248725709
-6.842071512984638 -7.292877169622707 -4.832338535369729
7.611293741856365 -6.486000892320178 -3.688012172721516
7.850080377519117 -6.194855774470406 -4.147542775803572
1.8399417198755463 9.82927334381649 -1.585377665818699
-9.552683776235737 2.9574030282060897 1.9920682988432148
9.52195596190864 3.0548902859959624 -8.149227231098708
-3.5232148680348185 9.358790359531428 0.2400868155888869
7.739354605764975 6.3326448097319075 -6.006226801287702
-9.350461574431678 -3.5452599827201188 -0.7280980842220295
3.6692307660904753 9.302512864015567 -3.380138083586102
-2.9664340552555037 -9.549883192784108 0.08738086090493091
5.792326341530658 -8.151622878495427 -1.4431884776789499
-9.755155821514382 2.1993032755793473 -4.665041195086744
0.3087816577253631 9.99523155749042 -8.38428031629698
-8.773280326242336 -4.798911576302397 6.752252427973126
7.114356361936556 -7.027512615098805 -1.6578324492218073
-9.106948077122603 -4.130798557251727 7.637694851019827
-7.911840311790929 -6.115781461164225 2.4212439589960493
-9.831495990736908 1.8280280588995619 1.0776430833834851
6.799622108703817 -7.3324715600421015 6.051759174406218
6.0177037119619206 7.986691557524913 -8.420747794958709
3.5824575501064833 -9.336273234095339 1.7483671833099947
9.562933890591452 2.9240888160549128 -7.392712359618985
-0.5171325963770639 9.986619742323441 -6.537141679929155
-9.999996847185482 0.007940798474912768 2.0972794530416685
7.889364745304752 6.1447476689887335 8.567729805680177
-0.8345233219144494 -9.965117702525188 -2.7906651921661796
9.24061035720096 -3.8224495060615684 -0.9491198443667521
4.6824411871577505 8.835991428742375 2.373014918948906
-0.1355139026530905 9.999081756950872 5.974665173612879
-7.875262370959424 -6.162811256930603 0.5410276381932437
-4.838532016849454 -8.751491754090999 4.422973120910353
7.667472033692713 -6.419491616361855 -2.461301020809352
5.770881891997722 -8.166818363880317 -5.338352538824105
7.757053363004978 -6.310952632011522 7.058890836375603
1.9060505180071676 9.816668040776596 -5.398202432553019
9.902143331049603 -1.3955491576257337 7.346752367499818
-4.144660479935313 9.100647752004381 -5.966504614003041
6.178536534668876 -7.862931151279523 6.813247192413563
7.334315863959366 6.79763273556861 -0.099044711520623
-9.574187675854676 -2.88702794366671 -5.652906507522626
-9.953758146761778 -0.9605720981652155 -3.847908205922888
1.413620117093065 -9.899579696358314 -7.086193366261497
-6.331650577356034 7.740168019253007 -8.978974500523549
-9.842457643029574 -1.768057562741871 -7.77833467979943
-4.990637283962293 8.665652860571178 -8.703545443073168
2.487344471775032 -9.685717189693811 -5.879697426776824
9.988261790322785 -0.48438250172553343 8.69585150077113
-9.93154699644242 -1.168064320769858 6.019476481755234
-2.4887076154920478 9.685367024774635 5.503368164922497
-1.6222898741439646 -9.867531381467705 -1.9960058885108438
-9.992423728398842 0.3891889414305054 -2.9775247794826054
0.44951105362018456 9.989891881931118 -1.9000338160658288
5.550375048460414 8.31825323138386 4.100532399583594
7.792338398858347 6.267332947728063 6.073817259905134
-9.760845891129257 -2.1739106443515785 9.230460666454363
-8.478466311768068 5.302415393027405 4.203748470602646
-9.798069248752721 1.999459676174113 -8.058119023323913
1.3090465588168565 -9.913949621964484 -5.781251183235918
-9.719278964834919 -2.3527890691087165 4.734014508739442
-0.3541808813033018 9.993725826903558 0.3546755708012732
-7.49913668808864 6.615357052598366 -9.176750028201003
8.872868320507264 -4.612180370165351 2.3197629087897162
-6.880397136393763 -7.2567303412421555 4.939869966556529
5.940887531248173 -8.043994986389537 -2.3616801067320274
-5.654194537492028 8.248035167977601 4.798824309605294
9.94952665032994 1.0034537529823186 -7.703341812551267
-4.86111147565414 8.738969917631232 1.6932396271485324
-2.1130567565277563 9.77420028154183 2.98209271267136
2.723699616667078 9.621926023316101 -5.349404394509656
0.6576407963073972 -9.978351997350673 5.7833240830155574
-8.333316232680364 -5.5277337640434485 2.5389173132261647
-3.084426009936163 -9.512429562905014 -8.195403862679782
7.8543597919199115 -6.189429073757272 -1.9132035974147819
9.79696281543022 2.0048739593993368 1.1846464727522417
-9.104168676312403 -4.136920680077401 -8.217926648799402
9.998731824210555 0.159254222923805 -3.058239221749184
3.856826808083075 -9.22631491834371 5.781633020324243
-8.485777935633566 -5.2907062692153435 -1.6500590623543268
0.769347494911222 9.970361298973765 -2.611067329296315
9.710419451986066 -2.3890906358886057 3.7118253330497346
-6.3785181936081585 -7.701591111829407 4.218099659359623
9.99870865298411 0.16070243539132062 -5.302053018753385
-4.795655625309442 -8.775060519645315 4.259911983102951
-7.939936744195303 -6.079260193327581 7.548952357870995
9.69014533652345 2.470037116533438 0.7830965529505729
-1.2308240216432467 -9.923964541842436 1.105138430595936
0.4889670389786382 9.988038407755171 8.320476782482913
-0.44045979722966744 9.990295049047571 4.728064990764798
8.700557759994826 -4.929532905356634 6.533279821843209
1.7594222120169665 9.844004951231044 -4.958448277777245
-3.8964494337669904 9.20965155747474 -3.662590916445197
0.6941292938923154 -9.975880137780353 6.773233181566635
4.170285848097025 -9.088933707820829 0.5206724057934249
-4.447022369561245 -8.95678469343893 9.002741586957878
2.0446227519378164 -9.78874444462916 4.840413556102657
1.9281776428967583 -9.812345844772956 0.46829245110414774
4.78159940655576 -8.782727771895564 9.793048178512397
-2.7765949334759217 -9.606795541458965 9.788513541470024
8.466408886657899 -5.321646414778059 -0.7143163840704467
1.3207578942966136 -9.912396208014144 -7.306884696248241
-6.533117626318323 -7.570889913391214 6.063632784240578
-1.1830561563712665 9.929772310122324 -0.5660403224029977
0.09278765794574573 -9.999569513260706 1.5427703867535563
6.128509403177774 -7.901985351489941 4.444965900787627
8.250809548933344 -5.650145289037295 -0.43400714066070556
-6.811216710212909 7.321702460938742 -7.144834163963618
-8.689243669157742 -4.949448904474328 -1.4793187288896341
-6.787509130183505 -7.343685710028415 6.375974024917969
0.4272690524620296 -9.990867888066992 1.4061377212417767
7.439945312201344 -6.681857058591815 0.015549181503187626
-4.478464556055861 8.941104809818047 4.597085609266735
-8.071681664056317 -5.903215658786067 -7.374161618871855
-2.142465464833174 9.767796155325785 -9.036207959930769
1.5080362096948183 -9.885637399290411 4.154211774229456
-8.369568582189975 5.472688712874001 -2.5044177684522184
-4.587529765553487 8.885638449214596 -4.932447799036561
1.9559527521564337 -9.806847038234647 -5.500978972004392
-1.7678543758695793 -9.84249414049705 8.832913474349247
-9.950480465087585 0.9939509615219277 2.293404222118278
-2.7233125977194073 9.622035569207942 8.851664427574416
-2.5285476473085695 9.675042469947627 7.6082740296622084
3.814998298099857 -9.243689089616504 -0.284246708317319
0.29546397396699087 -9.995634098949782 -3.247492848991172
2.5580247187045084 9.667290703113087 2.0181256706437196
5.846641130527244 -8.112754617935089 -0.9523237115761134
4.366464805490012 -8.996331758134371 -8.27442484624237
-4.918450599839263 8.706827418580248 8.986230261027067
1.4402807985582227 9.895736012106653 2.8584447108665003
9.47244548851782 -3.2051172314064234 -1.853825873992534
9.993727767091997 -0.35412613184342756 9.950144250573334
9.999217768363627 0.1250760602239437 -7.1536626863389685
9.973516795602 -0.727298238582224 -8.862822697575151
-4.3260009371926 9.015859132185282 4.986644958083875
-4.626945469692275 8.865177698190495 -7.226985213940862
-9.410284751185712 3.3832736959344087 -1.382597940778009
-3.8405242082286484 -9.233112899017845 -4.278015426857651
-4.289217494965994 9.033416478878722 3.1039698449085744
-9.02572093092679 -4.305387517637645 1.136640649182489
-2.983786375347382 -9.544475829834308 4.343496888943207
5.128785636349367 8.584611691647819 8.463509541261068
6.690075521759544 7.432556055163914 -9.627928704232469
-5.129809918989715 -8.583999661872939 -6.72933483550695
-1.5724462572759816 -9.875596830975775 1.6370637886914956
0.8597146423092377 9.962975997853206 5.834916458980997
7.933748308565657 -6.087334209350721 2.5144217206489223
-8.262765806871933 -5.632646023032873 -4.465100258537415
7.190899368539045 -6.94917018582397 5.74343765347863
-5.5826270744299835 8.296642390017864 5.053808668115057
3.877087676581101 -9.217819218671137 2.147655644990831
0.02892483504744588 9.999958167608376 1.707383983143874
1.9641800958305902 -9.805202524738739 2.4964586046827026
-9.913492594209739 1.3125031750623224 5.771474111521027
8.365893618198534 -5.478304844473794 -2.1807054724413906
3.057399351470451 -9.521150624038466 -1.7101792631657116
9.201050518836912 -3.9167166542668133 -8.866733206381895
6.754800045280469 -7.373783041850293 -4.605196437794936
9.96566273421133 0.8279892921720332 -8.61988582296924
9.977975870252163 -0.6633230982451921 2.5143326283057217
-7.364536554687843 -6.764879994106806 -5.728427860882852
-8.635312725184285 5.042952918506215 7.156507929095056
-9.860243936269073 1.6660100591740026 -6.585095842076358
-9.893497621114921 -1.4555771436077851 -6.472137559347637
-9.920322955279108 -1.2598382685735396 4.310582451794945
-7.899202487058879 6.13209589524192 0.7469723746979291
3.9528781268763256 -9.1855731728653 7.863836188423882
-9.606042675672315 2.779198465954218 -6.03330741975779
-9.03682771729191 4.282025783199429 -1.2170354135319599
1.7054003650614757 9.853507476774357 -4.47528913555951
8.320187008857399 5.54747583479555 0.06598407102571535
-2.4445316813538853 -9.696610998635407 1.3165405302821398
9.787998874315354 2.0481889650130785 -5.84325656094965
9.95973160672551 0.8965190025832553 9.34855544847171
9.541486177828366 -2.9933328445580907 -5.471227882595304
1.2786304823385697 -9.917918334491096 -2.573212161349674
-3.6738457136007554 -9.300691247034134 6.1414604143771605
4.41945769486209 -8.97041769837527 -3.7982677902032203
6.551709697655889 -7.55480641960082 -5.974587719565829
-4.160772075900288 9.093292898197463 -2.7937316260319527
-2.743488739747915 9.616302279716272 8.015756817278135
6.331220016464105 7.7405202088182845 -7.762715917069036
-1.0847956305106146 -9.940986794077592 -9.49719359218436
-9.778388502700984 2.09358980945294 7.7648005469016965
-5.085148846656262 -8.610531993283022 7.258977897666394
-9.961130841951045 -0.8808361649771581 6.795905568838727
0.39615194810492055 -9.992150100654648 -0.4289752060121508
-9.148801589105576 -4.037255191733523 7.090076101171242
3.7410264443889925 -9.273873038940216 5.454000742360243
-4.331834905103648 -9.013057547521022 7.387820793650604
9.682407889551616 2.5001954844268908 5.976067463889375
-1.553261949284825 -9.878632360651139 2.968771762537399
3.5699516879208417 9.341062302859944 9.191690359590218
5.235890350327297 -8.51970963351155 7.530390773524694
8.317902827595196 5.550900156792936 4.01274633166264
7.286264429027995 -6.849113130200241 -2.0835758506923625
-8.671593265223688 -4.980308247742019 1.9057095384675407
-5.842189216538244 8.115961135821454 -9.920012397365237
3.1078573555516416 -9.504799979880879 -7.303548404848241
-9.931410382075086 -1.1692253088311042 3.1656379010157814
8.983619755813901 -4.392559172390303 0.043003315068272485
9.970535752674401 0.7670833101049173 -4.011376429219169
-3.373801147658143 9.413685028513573 -3.1281196974670555
5.755560647897045 8.177623226120103 4.940484580931695
7.478464163102928 -6.638717779901871 3.85889384406018
8.002684476159438 5.9964190293071375 5.62356585333662
-9.831097186872963 -1.830171604593004 -9.85505337074585
-8.57763991204685 5.14043709612917 4.225081587517419
2.48274427443487 -9.68689738088315 9.109475795717323
8.236944062706309 -5.670339717146343 1.9628559185700016
9.321232206822273 3.621412727997071 3.4125284230357895
1.3286078103816616 -9.911347097453143 2.1783464687695506
-5.351062780665364 -8.447847484263542 -7.0613846638858995
9.899009197131551 1.4176095778122322 8.330169745605648
-3.825180455545507 9.23948020629476 3.1230862915532605
-9.948375388415627 1.0148039865738776 9.953025855285077
-2.643658840019916 9.644224589752385 -6.934508394011971
-9.635488706617659 -2.675323790617421 -3.1392896451159302
9.986833104743132 0.5129956510601621 -5.743543254165395
-6.6548645878447354 7.464099230144928 -2.501576816905075
2.6623035766020617 -9.639094338474536 -9.203893987306733
9.423738090810863 3.3456180887543647 -8.677155852629825
-7.65430164266875 -6.435189691301919 -4.312139279654026
9.11541723272646 -4.112075956656625 6.2502346276070035
-9.71087414137515 -2.387241799728599 6.71688056039574
0.20964281572569396 -9.997802252986133 8.632205750739178
9.137001209885495 4.063890856131719 4.587115926087179
6.071412868667828 -7.945938948807417 -9.270474835604501
3.5489272789068433 9.349070283671573 2.511461178444927
3.981376483334707 9.173256853372708 1.7246627529185226
-9.483380926691298 3.1726150411399887 5.3249826066343395
-3.7488615517126087 9.270708552537446 -4.641893194483164
-6.40344932531057 7.6808747378263895 -2.604964727125518
5.142754917689559 -8.576250454399046 9.167983059327817
1.6869170257705992 9.856688640114655 7.884917583805155
-4.4384735266112605 -8.961024090670161 9.767087603790106
9.075040048034529 -4.200434278329976 -6.316456116098649
-9.66164498067646 2.5792666142470386 -9.946939582989378
-0.298214190585156 9.995552425780861 -1.7058314067941645
9.199203857436881 -3.9210519493266616 -2.068861019799395
8.606967314427605 5.091179985855426 -1.7658208761507268
-8.370276783800858 -5.47160548308852 7.576055776080878
-8.146949847782455 -5.798897151848567 -5.833434551393594
3.5238347347457295 -9.35855698076362 -0.44431223592379787
-7.805031246470703 6.25151879479027 3.8915474926182814
-7.241224107991314 6.896714682937477 2.85442123296127
-8.879410349276249 -4.5995730072655485 0.17459478978087795
9.949062002834866 -1.008050228782013 3.1732313355966646
-9.011869296388037 -4.334306378743731 6.667953596181018
7.266058986915546 -6.870544869125289 1.9283117544193722
-0.9853066173362978 9.951340154463281 -3.842095889237944
-3.165054611064164 9.485906878574209 -3.993531387841223
-0.4608702074063419 -9.98937428730775 1.197127443906549
2.74932383730407 -9.614635637278806 -7.49966533936401
5.740434733333322 -8.18824822977054 4.344767323001005
-8.651838351144136 5.01454814970118 5.407222423230431
1.4313016660544755 9.897038725838637 -0.15772415851787258
-9.996066850552767 0.28044165040180435 0.7274154430935997
-0.4575724475350857 -9.989525887411112 -1.5300655347157122
5.923142088211991 8.057070671332832 5.541655492597144
9.188415959918586 3.9462655951561887 9.1704357775393
-8.09154969752906 5.875952985892363 -1.250863091965071
0.35699066755320796 -9.993625851675652 -7.692110014852207
-9.630009810751362 -2.694978857956498 -4.58945537266086
-8.832412267911865 -4.689189005536031 9.927091424637663
-2.7998215398917665 -9.600052049065052 7.939114600199524
-0.3458076829286847 -9.994019063741447 -2.996288659982773
1.6018548559144328 -9.870869314330088 -5.289305882571098
-4.616811554889243 -8.870459461980602 9.784858006879364
6.66959995606887 -7.450935271897491 2.1713483407027017
-4.975158563098097 8.674548822390229 -9.620511199634752
1.6936817730012828 9.855528501902027 9.944332290214724
6.519517236967307 7.58260476333075 -7.739040857108892
5.037590841547783 -8.638441903095366 -6.639606344582396
-7.779485804945454 -6.283279447124103 0.10408753574911778
3.490832270846342 9.37091724735726 3.2578539124481374
-9.771353546798476 -2.126181992085536 -2.2842997268792686
-9.363501126190494 -3.5106760972538273 -8.849862973388444
7.203877025269618 -6.935715954736939 -4.481370496302017
-5.098085546313231 8.602878806682803 -6.9455683684743335
8.731837901618674 -4.873910838316146 -2.225890134314188
-1.1656749521073844 -9.93182772232933 -7.903478323933313
9.979910023505767 0.6335581447105821 9.043095548635264
-9.520843757998199 -3.0583548086817443 1.016737032552765
5.843286122596565 -8.115171426992188 -6.6173357458009825
7.9066382380870595 -6.122505350918002 0.6856522911480756
-9.863230418142106 -1.6482371548525085 9.996867591754562
-4.860844328450185 8.739118514734404 0.5167205411909883
-5.686742792282063 -8.225628025532641 -9.672456544744186
9.02067757495402 -4.3159444028765765 9.363525913255966
6.672575526300304 7.448270661423243 -7.259111213815588
-9.98826393174204 -0.48433834234038187 3.4009846356279443
-9.955789854029547 -0.9392807793212389 8.234290130897712
1.1039331326899047 -9.93887979797268 6.542973498445065
-7.9041382224740095 -6.125732524361915 4.546994038954386
3.990421027439232 -9.169326039779087 0.7055066275004958
7.973271280315393 -6.035473891128826 2.9810385585291126
8.189216815534813 5.739052879017744 3.8465514399757907
2.943197965246889 -9.557069934732432 -5.540442275812567
6.1838737209201735 7.858734363987175 6.980051430375298
-5.237510040103061 -8.518714021483504 -8.576181893545296
9.914380634799517 -1.3057781696415025 0.8465539866961951
7.787480069455778 -6.2733686459372855 -3.9562174257176626
7.446486853719777 6.674566168477059 -3.0620025149921553
1.3984544016875349 -9.901733448563476 4.147990357806371
-5.567427320950406 -8.30684976546073 1.3296337812444374
8.972711976569107 4.414797819326874 9.760276557505676
-6.609680463302208 7.504140468637371 -1.4800096666875255
-5.097524637560403 8.603211177779183 4.1576739202257595
9.665014085667163 2.5666130841744157 2.6594146088760144
-9.016454741156352 4.324759403791052 -6.811415351544056
9.516615576262875 3.0714862808794714 -2.016366658215749
-8.031395116899468 5.957910076213252 9.885154321980838
-9.97818090540433 0.6602316404296539 -7.4339141051071
-9.840669197156961 1.7779847446269506 8.73113917889669
-6.442798026546539 7.6478986387849055 -9.820927328293013
-0.3697641361655038 -9.993161385848113 0.7531841014594676
9.85031485689486 -1.7237451145794114 -8.047531671880485
-1.8078106500783204 9.835233634920087 -7.523232650357787
-3.1134791233079575 -9.50295994670742 -6.4646671305242
-2.4517049422046227 9.694799785264749 0.20081575956039188
9.415754775808267 -3.368020487147282 7.683076723155381
6.82958918503894 -7.30456785604728 3.759430486117548
-9.950510631096357 0.9936489221240951 4.999574995507967
-0.6447184570436262 -9.97919526370475 3.480115118566138
-6.179141862158103 7.862455459163206 -5.841009901479206
8.256947904519155 5.641171093138084 -9.742298443757454
0.5511208700300245 -9.98480173997548 1.3837689126353645
5.146633230385433 -8.57392362876486 0.02356709877903107
5.273903133268555 -8.496231266914767 6.715020334977748
1.1496441468521528 -9.933696106465538 9.035695535357526
9.6512529079102 -2.6178841279848344 2.463691779917557
-9.981286486642144 -0.6114900420897476 7.794684017183904
9.571844255444201 2.894787997335875 6.999649104193907
9.504960463605297 3.107366503214608 -1.0853663240473708
3.0850233093557122 9.512235866542206 2.6796799851650164
-1.928092735668884 -9.812362529108924 -7.896498946888492
9.974441717479886 0.7145015217596834 4.111844935696919
4.671121394418347 -8.841980825505516 3.070385468846995
5.066549509862021 -8.621489202227009 -6.559679292696767
9.789213236475238 2.0423770980937923 -5.143805395219296
-7.677192140761893 -6.407863983717493 9.352477751478173
9.979144247131073 -0.6455076257882768 -4.452421021723499
2.7858727921597257 9.604109161494582 -8.132051261916029
3.854264794875819 -9.227385485118786 -4.791815464623936
3.3679913509235817 9.415765197800122 -4.936735391478518
-7.637369967380466 6.4552753606143645 7.828319448716968
9.972940137552806 0.7351632558746451 2.5569999249508584
-7.722612027969452 -6.353051508170035 -1.8400129150368016
5.0835261668118505 -8.611490098196665 6.553372108541151
-1.0815012324517215 -9.94134573808825 -5.684627244166702
-8.176063085641013 5.757776690669615 -5.544660397189611
-2.752325956300039 -9.613776668421057 7.765066597200775
-5.048987548022623 8.631785721385377 -7.281443034851039
6.5583351592976316 7.549055565984432 -8.3709324042706
9.996817523693938 0.2522685037134571 -7.173375934361525
9.683315217141637 -2.496679075386586 7.789327551465487
5.4302229321438915 8.397182795867828 -6.945328602717417
-2.7717729809051885 -9.608187890665127 -6.928418566877372
-9.661776141794883 2.5787752491915974 -0.7184827215111422
8.785058657898716 4.777315603691974 -7.977247816641504
-8.929779704140282 -4.501003714231339 7.601072993001932
8.672499036005041 4.9787308092014415 -3.952705558841904
-7.026924120264506 -7.114937625028409 -1.3155167311739397
4.726052997072592 -8.812742085688267 -8.617566654720578
5.517144951598648 -8.340330424092894 -5.006990432580347
-2.4606021109826397 -9.692545447478066 2.8439624438470865
9.209487135304494 3.89683803931611 -2.908364365246645
-9.321629999567026 -3.620388674047585 -4.0526965001580155
9.798298010969104 -1.9983383317744003 7.942386125085513
-9.986158027249942 0.525973245319125 7.000430784015794
9.696394226348632 2.4453913811970724 1.1747965201800508
9.137224932478926 4.063387814777896 -4.30767359343881
-3.329233409941585 9.429538954908068 -9.844392634629735
7.776433694256828 6.287056465376074 7.683016701148883
-8.709586773484034 4.913562682530056 -8.068959901271022
-9.025119827613612 4.306647431264332 8.000375840956188
4.09480095562323 -9.123190512853883 9.742732704378422
7.839317376921361 6.208470267618168 -9.931670342850618
-0.9357241390716536 -9.956124764965464 -8.661590350762802
-0.9683030314667596 -9.953009054514734 -8.100048307490654
9.26538160598043 -3.7620079340107067 2.111480975871265
-9.410897065011449 3.3815701133879945 7.310526267146585
2.205445581934713 9.753769004088863 7.276441237753367
5.310648210868445 -8.473311960526402 -9.423899408121095
2.0143579672844245 9.795017201599892 -0.5022584269925385
7.6500586091321034 6.440233169446879 -1.8262904825038753
4.156740862123973 -9.09513635989856 -7.172197413500745
-4.791966808981572 8.77707548683609 -1.1650608727928535
7.717891107789568 6.358785799844393 9.369767790861395
-9.478778258785336 -3.18634001964298 7.312658278297793
-9.933821431721121 -1.1485607353022877 2.967824821793732
9.959164211504362 -0.9028002039713481 3.438142331670388
9.823204552637478 -1.872071664504956 -7.65005072411342
-3.9584840658020157 -9.18315871042157 -5.352579382663281
9.955758885027294 0.9396089735630002 -1.2065607895927108
9.718721432778798 -2.3550910199068835 -5.339524567425579
-9.990604870831962 -0.4333754895107553 2.7513408566025674
-9.170343706487698 -3.9880817826220016 7.415262275690463
-7.623052537307995 6.472176605551038 1.7013474997007236
-9.683356629054177 2.4965184546789345 -2.8337730621672534
-0.501362109293886 -9.98742389384592 5.541654431499058
-9.029041953440146 -4.298418476953792 1.824670048475511
-5.291131626917039 8.485512719137144 -1.7284965363886258
2.677435474212472 -9.63490214176712 -4.197347388051886
6.671064787769051 7.449623788983431 -8.795576362459432
8.261071918966614 -5.635130056144336 9.20883500610158
9.68338330928711 -2.496414966591055 -9.026605077363389
-2.7330862229207025 -9.619263989416293 -8.392358672120533
4.456416260415798 -8.952114505182653 -0.08627224832538083
9.465233648120897 3.2263527374544747 7.873769078009573
-2.276118719367864 -9.737519374837886 9.42875893108744
-9.999411638825919 -0.10847523824699279 -9.226148593060437
-9.6275840971919 -2.7036317152115252 6.409319885496849
-8.028951305915687 -5.961202976516971 3.351571813221595
0.1689571269667495 -9.998572572584907 1.0872302238968032
-8.648660227332629 -5.020027517071468 1.6268622841459965
9.56048491394752 -2.9320859827402557 -3.641352634642578
1.745366270168864 -9.846506821353287 -2.3188178453297237
-7.347002861390928 -6.783918407138571 -4.6633437547785235
0.7376407180196785 9.97275720004851 8.658497768857416
-8.896476739991959 -4.566475841913768 -0.6692946542113791
7.701685881263574 6.378403764763199 -6.335877640384313
9.03546238059178 4.284906016345137 9.952339531936978
3.2828768060677866 -9.445777886240084 -0.5861553933962576
-9.235992402575201 3.8335941803447566 -6.4525548215793
8.533820002247355 -5.212860651239679 -9.8932860723888
6.595262208801195 7.516815575571798 -5.812914809625854
-3.637336758636793 -9.315029860621468 4.955051701098771
-7.788531128978379 6.272063683743555 7.498767559037148
3.9238880865188266 9.197994470778704 -5.665545358875034
9.975524560875016 0.699220805882736 0.9392765995208627
-2.474929678035086 -9.688896897417226 -1.4138312950051084
5.649746542931445 -8.251082595673987 -1.129891018448122
9.267870752283173 -3.755871632387632 -0.9434063919191757
6.888830687780033 -7.248724836486764 0.8051638454102523
-9.963800161871147 -0.850109601343561 8.627498081236876
-6.2606423829122715 -7.797714854576472 -1.0717081110548925
8.890224853060813 -4.5786353929986445 -4.4831706353531136
6.326507149066903 -7.744372620994251 4.27563106972217
4.711035467738385 -8.82077915048954 8.987257609604331
7.329127237069894 -6.8032267302244325 -0.09376355127462688
4.629541578814797 8.863822243819254 0.8992568247015935
-2.773338465892614 -9.607736140923125 -6.286861199606715
-9.999577832742606 0.09188670699657968 2.262866683860702
-6.036586700040254 -7.97242880262327 -0.36046606808009685
-1.555197816763532 -9.878327781094022 5.876113540679352
-3.0223358067451516 9.53233897169347 -1.1740463471432427
1.0456894438153006 -9.945176397987783 6.683509783236229
-3.6514746834570784 9.309496905637385 8.877301612828894
9.090877705001766 -4.166046393488896 -8.259902220435597
-0.1559334057428819 -9.998784164735902 3.3347610591614885
-7.359093271552016 6.7708010028797805 -5.941713331234329
-5.531103647070364 8.33107990871321 9.72291936746672
5.423276336729183 8.401670891880572 2.220831246252077
9.669986012421012 2.5478168143691162 8.68306101544156
6.054514979447574 -7.958822046235545 -6.129811868794928
7.9595027681139445 6.0536200479041025 5.3932459554830245
4.356451610039571 -9.001184886968138 5.430300888664693
0.7369180512334088 9.972810626185897 -0.2036197563787958
5.108744359450484 8.596553441338154 -4.396343649150847
-9.893961407116443 1.4524213143886362 4.013586931512245
-2.3678414985145704 -9.715622812661692 2.7749243593178328
-7.578085050235566 6.524770261962962 -9.812378450741988
8.296532841663494 -5.582789876683436 9.531811659093286
3.4945656261411226 9.369525659530098 7.170736878152589
-9.611013730524492 2.761958557196264 -0.4838963053652776
4.9444775672656185 8.692073491797402 5.608501889943501
3.933804548822235 9.193757761202189 -4.057181153916892
-1.3224156759233558 9.91217517904482 -3.6143299330322183
5.13105211812227 -8.583257199986086 5.6261153846362255
-3.740277484129267 -9.274175129989494 4.851298553762307
1.8075691672286578 -9.835278018728514 5.2735804494516625
-9.891271662119808 -1.470627385215459 8.924302532228513
9.026688678043637 -4.303358166557695 7.582189547369648
8.157430051061526 -5.78414513666785 5.418588588712183
-7.167169073411755 6.97364233905999 0.5537511933179058
-5.0801861390499 -8.613460906778718 -7.23407924650221
4.995396699618462 8.662910123823345 0.2823229420437112
9.16611376043402 3.997794208158057 -5.324834201377504
-6.511473726064484 7.589513154002166 1.5897687538490501
-8.72030214752041 -4.894520452092414 -5.644177618476746
9.986795938440231 0.5137186817254218 4.81866800342071
7.902952290990232 -6.1272624463403105 3.6107448399448767
9.84935487986705 1.7292219205293273 -3.1834047539347488
9.53414729612345 3.0166264826494364 -2.431852961805216
5.660959676908996 -8.243393447871478 6.624218574224287
6.649341724226349 7.469019656853407 -4.9143529062074975
-9.994581482400672 -0.32915192792016595 5.854697563128591
8.74085561996719 4.857719941586586 4.507856266712251
-1.1806178775122813 -9.930062508730668 3.66372788413077
-5.230292766950204 8.523147163576866 2.265708898550322
2.2125367349988085 9.752162898366741 -7.735320251939248
-9.686684601193122 -2.4835743268539545 -9.839073175456674
-4.833366458875292 -8.754345702233795 2.88600505430872
7.962631877791159 6.0495035811861495 3.198674063489115
7.416701927849272 -6.7076473158207195 2.9880774786505633
8.910927050205729 4.538213206308386 -7.933734521080833
5.723878282971999 8.199830327617853 0.4163790999388688
-9.889727912630752 -1.4809732658397987 3.643761265271504
-9.687472847864653 -2.480497897980384 -8.486018124339862
3.263333568708214 -9.452547488341018 -1.6794223020249266
3.6020194363749543 9.328743537045977 6.815155338727362
7.631620873846263 -6.4620710950804305 -4.551129391034669
3.311388143502586 -9.43582050290649 -0.027168636517034273
7.616255768788741 6.480173459437041 -9.174091696649532
8.62310909942851 5.063792003958422 -6.318296632962868
9.10917619841291 -4.1258828129586655 3.741687798114473
9.173537410952996 3.98073000464058 -4.111240425437215
-9.086614591452935 -4.175336545285252 1.5611527849384146
5.70045171185814 -8.216133535962861 -3.426281246566594
7.771775819206981 6.292813410231521 3.7461173229175095
-8.15707283840267 5.78464888381252 -5.457471152543592
-8.728479658038044 -4.879922423483397 -7.169594359427962
-8.329537297642363 5.533426461712922 -0.5559714123302015
9.586451184605608 2.8460417574543313 1.8831086685151277
2.723580999582937 -9.621959599723478 0.6453543503761576
-9.465552671314313 -3.225416659375105 6.747897516995252
1.3079562095391561 9.914093531631016 -4.7218616855923345
0.8596445583525625 -9.962982045215922 4.904088419314478
1.2856732998386913 9.917007823233876 4.714492408389411
4.770386387498291 8.788823226915593 -1.1468574756887495
1.7474952737246152 -9.846129202296206 -3.5077669224175683
-9.820699333719155 1.8851696466599899 5.02984311935929
-6.855691518496175 -7.280075123459895 -1.3128192003891481
-3.0233068195880235 9.53203104666747 3.775024179487737
-7.188697437800965 -6.951447989286395 -4.248408289323285
-9.733038513622047 2.2952039761968726 3.5844751482482113
-4.036472131955734 9.149147103853164 1.3542961797657185
-3.1136522749149806 9.502903214855804 8.611743778864852
-3.156989573236111 -9.488594038869957 0.20901358267939685
1.3591785130856613 -9.90720110674888 1.652954038708474
7.007492977083825 7.134076126319432 7.238019192505238
4.476796014425787 8.941940362428134 -9.56718317627318
-7.907994948813183 6.120752885842165 4.881026411663967
-0.2182860380160835 -9.997617276411777 -8.672557730882534
-7.426388054299714 6.696921715755271 -9.035813528654417
-9.962040747447388 -0.8704850063027365 -6.879132107744752
-9.659872831054434 -2.585895761212424 5.256798278647441
9.651843421540883 2.6157061314409855 1.3497303503331182
9.82447916939711 -1.8653710220978226 4.4575162874755225
-9.559440337009892 -2.9354898131569467 -0.46308380318649256
-7.2352815977442875 6.9029486599092476 -6.25028151694478
-4.852298157174568 8.743866569995237 4.291582458498549
6.678817754745529 -7.442673807100235 -6.727555205186942
-0.49269704499088024 9.987855106170556 6.77696058434654
5.730100520810914 -8.19548339156407 -8.091033819592944
5.77004721166269 8.16740810632012 -0.33694589440449363
-5.3160973767292585 -8.46989425442445 -8.732448537859598
9.269381298516029 3.7521421005502016 -8.334003419187912
9.211084894303887 3.8930598595355246 2.8207122687309916
-0.7627498468626113 9.970868200468356 -8.570014962300522
-6.315715910327741 -7.7531756422793 8.409194333002088
8.636678629340382 5.040613281486204 3.615446081844535
-9.930251474610046 1.1790274174102207 -3.660877585152429
9.98903399203078 -0.46818789609900513 -4.220553074820508
8.196698037634802 5.728362879552394 8.002983650206158
-5.674073702619894 -8.23437232685269 1.7565246185987338
